-7.34705 32.2675 -23.9976
-17.4018 32.3947 -26.1545
-44.1158 54.6488 8.77576
26.8989 30.3148 -4.07032
2.1426 24.3702 -18.7889
2.2461 32.4974 -18.6992
-10.2181 28.7153 -24.2186
54.2332 18.9911 0.0792065
69.0881 15.1181 -12.7883
0.89077 16.6762 13.0927
1.07911 11.974 12.6145
52.9824 24.2551 -8.74251
-39.144 64.8701 -45.6267
63.1804 6.66027 -8.47881
71.9243 -8.68672 -18.175
-9.49075 80.5016 -25.5737
-56.6436 36.7071 19.9548
-48.117 27.9784 20.7577
-58.36 39.7019 25.3086
37.6148 35.525 -9.75378
62.5962 11.7213 -19.4561
66.4546 8.2083 -41.7151
-67.1401 42.7841 -3.61888
-57.7899 9.83369 -3.80854
-41.6107 57.6261 -13.0872
-55.5755 54.0413 0.596298
32.5571 27.4286 1.03402
32.4957 22.4131 8.2893
-5.32822 26.4219 -22.1936
-24.3911 45.9079 -12.423
-51.1421 35.9567 21.7185
23.2862 36.3683 -0.691383
-21.8658 24.6631 -1.04873
6.58254 14.2426 17.5755
-50.9 1.05481 -36.8805
46.5406 27.1892 -3.9393
-65.2279 30.5674 -19.2495
64.0575 8.49016 -31.5382
65.9552 7.6093 -29.2758
-63.5849 20.3367 -24.8393
-23.846 41.636 -13.9726
-5.76258 70.3779 -33.5666
-49.9999 49.261 19.5614
49.521 25.4814 -4.36388
6.17199 19.1406 9.65615
8.14584 79.6928 -48.1239
-11.3495 74.8349 -44.9891
0.185075 12.2437 11.4744
-4.63627 29.013 -16.6965
-7.82186 25.9805 -16.9767
38.5475 30.4696 7.63652
-15.5325 40.8632 -13.441
2.27764 29.6113 -19.4351
1.24763 27.8375 -20.4945
40.9684 24.7356 1.13657
42.7648 30.108 2.07032
42.0245 27.1285 6.65674
62.5003 18.8817 0.651012
56.9377 12.5406 1.05611
-15.467 65.6282 -24.1377
-61.4079 33.6513 -20.2119
-31.0388 42.1667 -3.04797
65.0612 7.40004 -8.73076
74.7731 6.30324 -20.7582
71.724 -0.900621 -0.402973
-30.2701 52.6076 -10.0063
0.8976 64.0378 -32.4329
-42.8826 53.868 13.2996
-49.8599 43.2856 17.9312
-40.9808 -36.5855 -4.98362
-64.549 25.258 -24.4732
-45.6314 23.3762 24.24
-10.8561 66.0534 -23.0282
-14.218 66.6969 -24.8191
-40.5615 61.0739 -43.0347
-6.20522 29.8114 -27.5001
-18.3634 29.1801 -11.7957
-37.9074 56.3349 -25.4112
-69.8265 17.6739 12.8836
30.0308 32.7893 8.36956
35.2078 20.8061 3.41135
31.7011 27.0125 2.37435
-5.59163 25.5072 -23.6542
-37.2904 61.5287 -17.9858
59.0407 15.4029 1.49549
63.2563 17.822 0.326976
-5.91926 74.1093 -34.7252
72.3714 0.145561 -32.2241
-48.5721 66.813 -49.1723
-49.1656 65.9605 -43.8615
12.9579 19.725 10.016
15.9787 26.1589 11.309
56.0032 -4.91733 15.2234
17.8273 69.0659 -39.6327
-13.8232 68.4902 -20.4497
1.77119 27.2238 -23.6648
-18.4579 74.7614 -22.814
6.53117 11.0174 8.28181
-65.4837 37.2705 -9.298
-51.9799 76.1724 -62.3262
-50.0408 30.7831 28.5729
9.12419 15.9122 13.4726
-49.2746 4.75193 -18.6136
-25.8626 43.6724 -10.2034
60.6762 12.2048 -3.77674
55.6295 2.16815 11.5586
-9.12042 76.5846 -26.8205
-46.0754 45.5638 16.0268
-44.6331 49.8316 18.3384
-15.4697 76.1362 -34.0879
63.9188 7.27198 -12.5744
-63.8102 13.7421 -20.1859
74.521 -8.31594 -7.08309
42.9929 28.6509 -3.96383
21.5359 -61.2382 18.8421
25.2534 -58.3807 20.8336
24.7421 -60.8111 18.4668
28.7257 -52.3213 22.3854
14.3258 30.7921 -22.572
-41.3199 46.1709 25.2627
-25.0341 66.0503 -18.9153
-64.7941 33.4173 -8.20798
-48.9035 43.6151 23.2536
-6.00007 78.3586 -33.9217
64.7213 9.41336 -23.5713
-64.9686 24.7894 2.42879
70.7065 -2.3028 -39.3408
66.3965 2.13735 -30.9948
65.2382 3.6849 -30.7263
58.3039 5.34445 9.88697
72.1127 -13.3395 -16.0199
-8.80254 77.1623 -30.0478
-4.63457 77.7 -30.9993
-40.8437 23.7457 22.6446
-43.8804 51.738 13.0276
-30.2766 32.7843 12.6868
67.8629 -5.89744 5.26004
17.2034 34.9029 -8.0379
5.31052 30.2264 -10.1077
-4.2209 28.5849 -21.6146
-51.4645 57.491 -20.9521
37.7596 24.4399 5.7715
16.9857 26.3627 -3.79325
-38.1069 53.42 5.79086
-46.6135 58.3424 1.37636
44.0942 21.0712 3.84046
-16.7192 74.7369 -36.7428
-16.7038 76.9494 -32.6647
-27.4539 -56.5188 20.3746
-26.2889 -63.403 25.3613
-25.5774 -59.3274 17.1914
-26.491 -61.2478 21.8018
6.99557 9.7357 12.2289
-21.4736 61.815 -14.6564
-49.3358 48.113 10.4966
10.0933 65.8317 -37.4586
-44.6435 63.0595 -39.0542
-49.5921 64.5347 -44.1877
67.7216 14.9046 -3.5574
61.1228 3.65748 -13.3551
69.263 -5.62082 -33.8572
-15.5376 68.2659 -24.884
-16.121 65.7414 -17.9227
-19.8149 -53.1553 12.2021
-13.6762 -61.2374 10.8247
-46.1 70.5377 -48.6491
3.052 -10.8364 24.1171
-9.51458 29.7668 -23.3042
-60.1584 36.9592 -20.1924
12.2327 27.229 2.31854
-7.85968 75.9272 -39.4914
-62.1525 -5.32818 -15.8064
-9.04963 34.3927 -24.3324
46.8842 28.0476 3.98026
-42.3839 62.5922 -36.5127
-33.6892 56.9569 -38.591
-34.9691 55.7894 -38.5982
-35.3392 56.9505 -35.5886
-45.229 38.9487 -33.8456
-50.9685 40.765 17.6757
-49.2574 64.9667 -45.397
-50.5559 62.3312 -47.3401
52.0806 18.8892 2.97524
58.7496 11.8727 -2.36688
64.3915 2.39359 1.00602
64.9202 9.42684 -9.78056
67.2054 11.4168 -10.6652
6.32519 17.8739 14.013
-48.276 46.3867 16.3619
-46.0089 16.8758 24.8782
45.4695 13.6185 8.31127
39.141 16.4564 7.01447
-53.3034 17.3683 4.71622
65.1461 2.71853 -34.8262
-48.9713 41.6471 22.2775
15.209 12.7641 10.458
10.9901 19.4636 13.6781
-10.3381 74.028 -30.5226
-11.9426 73.5326 -30.3221
-13.2069 74.9696 -24.9723
-10.8765 72.6934 -29.2674
-34.8473 20.9684 -36.9455
-47.4372 67.2328 -79.292
-67.5737 48.6227 -3.51787
12.527 12.5901 14.7416
9.90122 13.5114 14.1572
13.7487 13.9002 15.3665
24.0705 -53.9032 13.5418
28.5424 -61.1445 20.3399
27.3606 -54.4717 21.568
5.48203 15.2711 10.4887
-62.3724 27.4407 -23.9722
37.7036 18.0903 9.83897
-47.2342 69.3716 -64.1886
53.4998 17.1108 -2.19015
59.1287 6.63826 -39.8436
67.0101 6.59992 -18.8226
22.7725 13.4161 10.7144
-38.798 52.9239 15.4355
70.5883 -2.09011 -19.9937
64.779 -0.47961 -35.8127
-44.8855 26.216 24.3885
-25.0294 69.1919 -30.0537
16.2853 32.8288 -14.2537
29.9907 36.0349 -14.1419
-33.1759 58.5303 14.9358
59.8151 17.8039 -6.16102
45.4846 -55.1544 10.0983
45.881 -7.19462 24.4124
42.6725 32.5482 -15.0585
10.7275 11.6964 13.3036
66.2698 16.961 -16.1502
-50.3685 -1.58075 -34.101
68.2875 6.89927 -10.1381
64.2907 -3.41551 -11.1856
-58.633 12.1846 -30.8965
-55.8423 34.4146 -31.684
31.2942 9.81336 -49.9462
36.7324 5.80401 -50.7376
38.6027 23.3087 -1.27025
23.6898 34.6622 -3.00008
26.6729 37.2469 -8.29035
-15.871 27.7096 -5.45893
8.03204 32.2648 -21.6983
-8.18371 31.5076 -20.5179
38.7321 29.5061 1.88071
9.86979 27.271 -0.945679
-44.5625 65.2274 -39.5221
-35.6539 56.9706 -21.4522
-17.9694 29.0923 -3.32489
-15.307 78.1363 -27.821
-13.5265 72.2034 -27.9293
9.05224 35.9248 -25.9718
-27.394 -57.8838 16.9831
-33.0291 -55.7447 21.149
-30.6673 -54.5046 15.995
-27.0657 -54.0317 15.8761
-29.359 -60.6024 18.3918
-21.9155 -52.4082 22.6964
-16.4811 66.0187 -22.7167
21.8501 32.0176 -21.6698
-63.2453 33.9952 -3.66928
16.9463 22.9224 -40.7017
-29.204 -53.8297 20.8951
-15.6932 -57.9694 22.9283
-15.5351 -53.5353 16.7844
-16.9488 -53.0157 16.8293
-23.3127 -56.7488 18.9388
-15.9762 -54.6627 18.9552
-18.8661 -56.5082 13.3397
-35.3129 78.5143 -94.5872
-33.9687 69.1645 -47.9081
-9.52247 28.703 -5.9449
-53.4181 54.2879 9.29484
-36.4738 56.4851 -16.215
23.0008 29.5113 1.37784
-62.4086 -3.56548 -11.6021
45.5828 18.2259 3.09619
47.9282 22.6581 2.34945
-39.063 59.4014 -38.7795
-7.28648 27.0403 -31.0227
-4.42418 22.8369 -21.3654
-10.145 26.7296 -31.5894
-14.1509 30.0267 -31.6555
-12.2109 30.0052 -28.1016
-53.6944 6.97361 -30.6331
11.4248 24.8586 12.974
63.2601 -1.21751 -8.38579
67.817 0.186244 -0.782283
64.0684 1.42097 -0.753026
68.3212 6.63893 -12.2956
-23.3755 62.298 -11.8459
-19.7005 62.8492 -17.3834
-20.0077 59.4069 -12.4067
13.4476 13.676 11.5243
-10.1699 80.5939 -29.5723
67.7566 3.13503 -10.4678
73.8053 -7.60912 -7.87068
1.32509 83.7977 -35.0414
2.62 60.2647 -33.3253
-1.48309 62.2533 -33.1099
49.9534 26.4002 -2.63749
15.4551 36.8844 -14.8042
68.7904 4.19868 1.32827
61.0532 5.99446 -6.6544
-3.24224 16.0238 9.94624
2.72985 14.2102 11.2661
1.6426 19.4697 9.17834
8.53622 19.0662 13.5897
-53.3826 20.5452 24.3822
31.0768 -55.3375 18.6984
31.092 -58.6895 22.1451
24.9163 -53.2421 17.6708
28.8782 -53.2302 22.6161
33.3962 -54.8685 23.7665
39.1575 -50.3321 17.04
32.3844 -54.297 17.4634
34.9927 -56.23 17.8733
32.4031 -62.0384 20.4987
33.0516 -59.9025 14.0521
-31.1094 59.472 -17.4709
-26.0706 59.7843 -15.3643
-14.1043 58.5438 -17.996
18.6675 10.0061 17.2896
15.2046 22.5896 15.3312
-51.8169 32.2225 25.4593
51.5535 25.4208 -7.1565
-33.9816 54.8422 -3.73874
9.18468 16.7108 14.6614
58.1418 21.2999 -5.89815
68.5259 9.20472 -25.9835
-53.7033 45.7715 -32.3895
66.6622 5.84498 -36.8419
20.1874 16.9457 14.3726
-12.4835 68.4956 -25.5251
-51.6479 23.9796 29.3053
59.6503 5.15956 -34.1335
-40.729 29.7828 21.6855
60.3204 10.4952 -30.8779
64.4522 6.01814 -8.79536
68.0207 -11.6244 -19.3181
-40.6186 -4.54943 -42.6597
-45.2537 -3.89178 -43.0103
-50.2252 -4.99426 -37.8998
-38.6756 0.0948202 -38.4048
-42.6644 1.46292 -44.1259
-1.28734 81.7883 -33.0123
-2.12687 83.7357 -35.1935
38.3719 31.2342 -2.82406
-29.2209 61.6435 -20.7405
-32.5962 58.6865 -13.6082
-34.4461 55.4548 -20.5933
-43.2537 55.0316 -19.8339
-9.42565 25.0697 -5.47212
5.8237 33.3987 -19.445
-12.7798 29.8127 -20.333
-49.9228 45.6585 13.172
-50.3961 63.702 -37.7042
-18.2659 36.4232 -12.3443
-47.9241 63.7684 -0.673445
-49.4517 -2.51425 7.1881
-12.4679 71.2247 -33.9676
-38.4377 -55.7171 15.889
-30.8713 -53.4968 11.22
-34.0146 -52.7998 21.4277
-33.0138 -49.4912 19.7494
-26.4809 -55.611 13.8301
-21.0212 -58.8098 21.5155
-20.4624 -58.1732 14.5899
-17.8208 24.4264 -30.9093
68.3963 6.72511 -37.696
-57.9733 32.7266 -26.6091
-24.9374 -52.3093 18.6077
-21.5782 -52.8967 17.4981
-21.4343 -60.7416 11.8531
-18.9845 -58.414 22.9949
-16.7206 -49.7496 14.6724
-18.6144 -54.9895 13.6954
-18.8552 -56.2917 21.0707
-9.89995 -54.7933 14.4169
-14.7703 -52.708 14.3944
-12.6938 -51.9164 12.3146
-8.26079 -54.9286 5.4087
-46.6472 63.5218 -40.2582
-40.455 62.8076 -39.2621
-36.249 69.2586 -37.8159
-40.3262 64.9641 -43.1588
-37.2844 60.3851 -38.8351
-37.3978 61.4122 -41.5468
-42.3261 57.7096 -40.3134
-0.293497 32.1116 -22.3853
-2.49045 -54.5122 22.0507
-3.42547 -55.0381 24.9325
-2.22639 -60.9198 17.1775
-0.497362 -55.2941 21.4074
2.30072 -56.4609 27.169
-0.0535832 -53.8122 29.4142
-0.56497 -53.881 23.5187
3.50169 -53.207 29.7002
5.40083 -56.594 28.799
39.6956 33.3325 -8.92571
-16.2037 69.0575 -23.0519
-23.7476 66.874 -26.602
51.0147 24.12 -1.06427
0.0321028 65.4923 -34.3455
16.2105 33.9638 -12.3716
15.6183 -51.4138 24.6637
15.0076 -52.5978 18.4521
17.8118 -54.8355 22.2434
18.2016 -56.3085 23.4827
15.804 -53.0838 28.0988
15.8808 -52.9672 26.0229
18.1969 -55.6415 21.6942
20.4585 -56.1601 21.8639
17.761 -51.871 18.308
12.0107 -51.1628 22.935
20.6233 -58.0388 20.3747
23.6587 -56.9127 20.3244
22.8042 -52.731 17.6997
24.1715 -54.3979 21.486
26.8454 -58.6634 21.3868
30.3086 -58.231 20.3544
28.3701 -59.6037 19.5447
29.8931 -56.1829 26.1332
28.6725 -51.2431 17.1592
30.1618 -53.5628 18.8818
35.1795 -55.3028 23.052
29.5313 -52.7736 19.5132
37.0223 -55.1266 17.5907
32.7069 -52.5669 19.3358
34.1917 -61.1304 13.6306
-5.04193 28.5572 -26.5732
49.863 17.6575 10.6794
10.6123 32.1171 -7.04639
17.2072 14.5947 14.1448
15.1497 18.028 10.5741
16.0896 13.1578 7.53262
4.40877 23.5611 6.50214
-26.3973 45.5093 -4.95084
-40.2654 78.9452 -83.0015
-6.42436 74.6507 -42.4415
-23.2267 31.5041 13.6528
-40.9954 27.6624 17.5364
66.2316 8.4424 -18.754
52.7908 24.2261 1.85893
-8.33558 74.5176 -27.635
-13.8003 79.4865 -30.7644
-72.9586 22.7285 -1.39591
70.8867 -10.8653 -20.1527
17.4749 15.5639 10.9367
21.9728 15.7573 6.4559
-51.2881 19.4555 -35.2552
-23.4134 62.5209 -35.165
-17.4043 62.0547 -37.9674
-20.4371 -31.1403 4.76463
-9.98662 -5.4672 -48.4006
-11.3302 -10.0998 -54.4768
26.855 13.2635 11.5804
65.8214 8.47159 -14.4412
-40.4573 39.2368 26.1994
-59.9387 59.6334 0.914924
27.2823 20.846 15.5732
39.1655 27.281 -6.9274
-32.7654 59.5564 -19.0531
-40.0246 68.3712 -85.2087
-36.5405 62.6382 -34.6414
-41.9033 55.7211 -34.1275
24.1866 27.8424 10.2312
-2.84885 30.9763 -17.7309
-10.3758 30.6239 -21.1987
-51.654 50.5414 19.7814
32.5798 30.5177 5.27631
-39.815 63.9298 -39.0045
42.9514 21.8315 2.03586
-43.9778 57.0355 7.60163
-33.0002 60.3471 5.36253
-29.9548 -52.0358 14.0796
-28.0495 -55.3282 17.0147
-32.4148 -47.6658 18.2908
-29.5459 -56.4674 20.6524
-21.6997 -53.0904 17.7843
-27.2419 -54.7622 17.957
-26.4138 -51.379 14.0648
-24.7141 -58.0839 13.2729
-20.6052 -55.1328 20.8246
-20.3847 -61.2877 12.0588
-28.2079 -53.8622 11.347
-21.1289 -54.1811 17.5624
-23.4278 -58.4753 17.6575
-21.3687 -50.779 13.1248
-22.4961 -57.0607 13.5763
-17.8426 -56.7029 8.92908
-20.8093 -53.6248 12.0851
-18.6775 -54.1131 17.1104
-14.099 -56.2917 14.9552
-16.9461 -53.782 14.3669
-10.2635 -55.7898 13.6636
17.0433 30.415 -8.0353
1.92792 29.47 -29.0915
6.31792 26.7743 -24.6488
-0.617323 30.1323 -24.5508
1.40745 27.412 -28.6111
-1.3168 31.6855 -21.9594
0.0772777 29.156 -22.879
-3.27574 25.8818 -25.6037
-5.70801 -55.2517 22.7864
-4.94732 -48.5916 25.3708
-2.49416 -51.2831 25.6539
0.181274 -48.0471 20.265
-2.10138 -48.1112 21.4883
3.48707 -45.1491 26.4813
4.41952 -51.7069 27.8969
5.42519 -50.1623 29.6929
2.3369 -54.5524 25.12
9.55664 -54.7325 26.3006
6.50799 -49.7183 24.1463
-42.6048 51.2564 9.99536
9.34868 -51.5756 25.9182
9.73759 -49.1036 21.9589
11.0589 -49.097 25.0578
11.7652 -54.7585 21.2936
17.1354 -56.3318 25.3377
12.1657 -53.1682 20.7234
16.9061 -55.0589 18.2433
15.3549 -54.0485 21.0504
14.162 -47.5519 20.1298
20.7032 -51.2767 18.4356
20.3592 -52.9081 24.6603
22.3211 -54.7342 18.8153
19.819 -56.8881 27.2405
21.7439 -57.2559 17.2736
26.6034 -49.3477 20.9671
20.7538 -54.6338 23.1236
27.4362 -54.0799 19.6635
21.6878 -51.1535 15.9937
24.2052 -56.953 18.7795
31.0543 -52.2036 19.6366
25.8668 -53.7356 20.4715
33.801 -52.0705 13.2016
31.2662 -52.5567 16.3478
30.3255 -53.9847 20.8185
33.0509 -56.2473 19.6343
35.6337 -52.3238 16.8888
37.3707 -54.1038 21.8671
38.0885 -54.0731 21.4836
48.5792 12.8408 12.9599
25.0546 21.3244 8.07112
36.2875 14.3742 12.2671
16.2716 16.3311 16.9014
11.1222 13.802 12.3429
3.2199 12.7334 11.4247
5.80947 11.4762 11.2159
5.20183 19.0472 13.2705
-54.0655 49.3404 11.7762
-53.9036 51.1322 13.0387
-43.828 45.8107 12.3901
-49.995 56.1934 12.0842
-18.2148 24.5134 -5.39587
-53.0236 34.6483 29.9032
-27.7062 55.2541 -19.4932
-13.3159 68.1431 -23.491
-13.4591 70.7821 -23.447
62.515 0.102183 -35.1452
58.8468 7.48709 -38.4061
73.6398 -11.2428 -6.13714
26.3258 6.1828 -48.5106
-53.7597 -8.74382 -42.0437
-45.9449 -6.98419 -37.1278
-48.5427 -3.22621 -36.207
-43.9433 -7.63735 -45.3483
-43.3869 -10.1581 -42.5252
-42.3144 -6.74854 -40.4026
-5.3046 26.1666 -23.3799
53.9833 23.1492 1.89967
-10.6469 63.3644 -21.9425
-10.2781 65.8951 -24.5607
28.5 29.6719 -14.109
-43.6441 42.5835 29.7599
34.1715 32.2224 -5.42513
10.4531 23.6417 0.824009
-39.5948 64.7078 -18.1232
-33.843 62.0709 -36.4555
-42.5953 58.3138 -42.3654
0.281313 -6.87862 26.0117
-4.01743 22.8594 -21.7226
-11.9798 32.6628 -21.6171
-65.7502 20.7136 13.0204
25.0218 -2.37852 23.8307
-48.7152 67.5212 -36.9444
18.1476 31.8255 0.200749
10.8761 30.9668 -3.04829
75.9124 -22.3126 0.762681
-28.2776 -52.0243 16.1295
-34.3521 -46.6762 15.8332
-29.9245 -52.8243 19.709
-28.2654 -51.1394 19.1941
-19.0265 -49.9069 13.5089
-21.6454 -55.6491 14.591
-23.1241 -53.9922 11.935
-23.005 -48.6016 17.1589
-27.2936 -53.0837 16.1304
-22.958 -54.6768 15.2
-27.5795 -50.7293 8.52291
-18.0127 -50.7651 16.3743
-19.9223 -54.3479 14.6802
-17.0619 -49.8823 11.1842
-18.1347 -48.9604 9.24632
-19.9191 -47.5258 10.9773
-11.4161 -52.9495 13.2019
-9.79006 -50.7721 16.7235
-13.5595 -51.1125 12.6998
-9.85308 -50.7811 14.6895
-13.8139 -54.3841 16.4444
-39.9113 55.5871 -27.3483
-61.3504 50.0777 0.247501
-50.1161 61.3494 -1.87617
-44.8727 59.2876 -2.14431
19.365 2.16753 20.5389
55.356 20.164 -31.0878
-69.223 22.0973 6.00873
-0.498586 -51.4431 18.2909
3.79794 -55.7063 20.8801
-3.01785 -53.0588 27.6097
-3.35985 -53.6962 23.5991
-1.73611 -46.2406 25.0063
4.16187 -50.6337 24.1133
5.76472 -51.6115 23.8305
9.8041 -51.0805 27.8361
2.78599 -50.4081 28.6139
6.48892 -53.581 21.8693
8.37216 -52.2538 23.289
9.28412 -48.2132 17.4643
4.91452 -47.6796 25.2094
9.03915 -56.9685 23.5651
7.79737 -51.5522 24.1604
7.54625 -53.3017 23.6338
21.631 -49.665 28.7088
13.9327 -49.9717 20.5096
15.3177 -52.0289 16.3831
13.7186 -50.3845 22.3111
18.971 -56.3212 19.9361
14.2883 -53.3116 23.4386
12.5449 -55.1106 19.7375
18.6438 -53.7394 11.025
20.5656 -51.3032 19.2753
24.706 -52.3472 19.4541
23.8028 -55.6099 18.4927
28.4978 -57.2992 18.2035
27.9907 -51.8122 20.5529
26.9767 -52.1798 17.9953
35.4718 -52.3878 22.4438
30.7575 -56.1563 20.7348
26.2916 -50.3519 22.8303
28.0332 -53.2388 22.2219
32.8858 -50.7341 19.3972
29.4054 -50.8088 21.3364
31.8833 -51.9175 18.505
40.5783 -53.2142 22.7263
34.0415 -46.1894 27.5258
38.2979 -53.4952 18.0032
-2.90378 22.491 8.10478
-1.73899 19.0602 12.3863
-6.53082 17.4563 6.26746
-20.0124 17.0089 2.51636
19.1759 21.2032 15.5294
67.7768 -13.7616 -31.2515
23.4214 15.1133 15.8129
22.8898 10.9304 11.7254
-4.56596 28.9447 -19.6634
-43.9701 46.9495 10.5643
-41.8956 42.1196 15.5427
-47.458 55.3186 12.31
-46.1775 46.9869 10.1858
-10.9019 74.8812 -33.5779
68.7633 4.20621 -2.07879
-25.0824 64.8033 -19.2676
46.92 25.0759 -2.12805
14.5637 36.6614 -15.7976
25.865 14.7144 16.7086
-1.37965 23.5187 3.32449
62.0001 6.45118 -12.0951
56.1348 -44.7159 0.770353
63.0039 -57.6181 3.88202
-26.004 59.2707 -35.5568
3.09552 77.8809 -43.7412
50.8904 -9.68377 -53.9258
-1.02304 -4.25974 -50.7048
-7.97579 -9.46003 -54.4311
-5.81039 -7.39535 -52.455
-25.8613 60.5719 -23.9425
-6.58067 29.7794 -27.7395
-63.0245 55.4677 -16.9735
58.2128 18.8511 2.18898
66.0026 10.3278 -3.01597
4.91128 80.8247 -33.4514
55.7765 -8.41727 10.9058
20.567 16.9297 17.0721
31.4247 30.6878 -3.46118
22.0697 33.3966 -5.91933
29.2579 29.739 -3.90048
31.762 33.8883 3.66085
-20.511 34.3385 -4.48608
-6.80035 27.9517 -21.2685
-16.405 29.5774 -20.9537
-60.3364 26.7812 -24.2178
27.0523 -3.61029 20.5679
-19.0354 72.4219 -28.1312
-38.3646 57.0639 -34.9762
-38.6171 57.422 -38.5554
-34.9587 52.3407 -37.769
5.95196 -6.15644 22.5063
-26.4481 -53.6967 19.4216
-26.9199 -50.9317 10.1718
-28.4852 -48.3283 16.1014
-24.826 -55.0636 19.1951
-27.6231 -54.4335 14.7259
-27.0399 -53.8643 16.6614
-31.616 -53.6215 9.73518
-22.8995 -49.3456 10.4412
-22.8438 -51.8049 12.1824
-23.2492 -53.6057 11.5148
-18.2105 -53.2061 18.4359
-15.6967 -50.0762 18.812
-14.6935 -47.4048 11.2594
-19.5338 -51.0948 12.9781
-18.8028 -51.325 13.2033
-12.8682 -52.0345 9.78855
-15.0525 -50.2475 12.2287
-14.243 -52.7936 11.9962
-11.9145 -52.9485 16.5292
-12.3237 -52.864 13.6237
-12.4635 -59.7794 15.0685
1.96664 -6.17367 -56.6524
-2.86116 24.7042 -25.6532
-1.74745 25.6188 -29.3921
0.759806 29.8154 -28.9871
-6.21024 25.7286 -27.1821
-11.8366 25.5811 -26.5494
-6.99358 29.4518 -29.7676
-5.61563 -52.0028 11.0884
-1.83513 -51.3922 28.8027
-0.31626 -45.9156 22.7972
7.64864 -50.6391 22.6321
5.01419 -50.1677 21.6416
3.02338 -46.8123 23.195
-0.0279202 -50.7677 21.1868
6.10831 -49.8974 25.7784
3.07654 -50.1537 21.8949
5.57409 -56.6666 23.2101
6.1161 -47.4084 26.5889
10.4821 -47.4946 23.1796
7.62094 -50.5698 22.2679
14.4956 -51.788 28.8161
13.5701 -51.2372 26.5091
11.0245 -48.7736 22.7844
10.5493 -48.6633 24.4811
17.1245 -52.983 23.8937
15.61 -50.8768 21.9451
16.374 -46.7708 16.4537
15.7957 -56.0315 20.5254
22.3727 -47.6918 23.9704
19.143 -50.5932 18.415
18.1155 -49.7752 17.3015
24.6817 -50.551 23.7362
21.3037 -54.6707 24.5727
25.6441 -50.8192 22.3378
28.5239 -48.9568 23.675
23.1111 -48.9895 20.5664
28.337 -50.0736 21.7141
31.033 -50.6168 20.1861
25.2148 -49.5071 30.0895
31.0591 -53.6267 21.6599
32.5724 -48.8057 24.0362
26.0929 -50.5016 22.5518
30.7705 -49.2907 23.8428
33.209 -52.2719 21.0008
37.9214 -59.0255 22.149
35.8678 -52.403 22.765
39.09 -53.1092 23.3379
-45.2343 45.3526 23.8425
-45.6937 38.314 21.4335
-3.26171 16.1143 0.116164
-31.1101 56.5081 -0.362256
60.135 16.5966 -1.74241
25.0057 16.757 11.7931
-46.5717 37.2281 21.0749
-53.1578 35.7639 22.3272
-46.6185 40.3706 17.3511
-48.1247 52.6571 11.8491
-47.7161 48.2822 19.5593
-41.7763 48.3655 13.2782
-43.8001 48.6183 10.1533
-46.5259 48.9305 13.0869
-56.0758 -5.7384 -35.6319
73.1095 2.59918 -21.6351
-17.1583 58.6752 -10.8915
67.3661 4.07138 -9.07176
-49.4188 47.1356 21.4438
-48.9226 50.7018 13.3201
2.15213 78.0019 -33.5968
59.9191 -57.5171 7.55567
62.0118 -49.4703 3.92671
61.9186 -50.9642 3.32569
57.9377 -55.7792 -0.820811
58.2432 -56.5754 2.0684
63.802 -52.4829 5.66454
64.9574 -51.3609 3.56364
13.1419 13.9576 14.0153
-19.2631 61.5079 -21.5385
-16.8862 62.8208 -14.7672
11.2355 61.6752 -43.2356
64.055 21.2983 -2.12979
-17.2244 72.8969 -22.0791
66.6125 7.17352 5.54898
60.0126 5.24445 8.39616
1.21993 83.8312 -36.4771
1.74762 86.9123 -37.6622
3.70358 80.4234 -38.8388
17.0524 33.683 -11.9424
5.62717 31.512 -17.628
30.0742 28.1597 -3.59343
26.0536 22.3051 11.0759
-40.3836 49.4761 12.0664
-47.4922 63.0602 -38.4122
-42.3121 62.7296 -40.4562
-19.2497 66.525 -21.8617
22.9065 34.1412 -7.34431
-37.0664 55.1333 -38.6109
-41.6744 61.3281 -33.7815
-38.7956 68.6591 -34.4358
-36.2753 -49.3029 12.2637
-28.246 -57.3341 13.6406
-25.9764 -44.2482 9.11066
-25.1862 -54.1945 10.401
-23.0046 -51.6561 10.9161
-21.2555 -53.9994 10.717
-22.3635 -47.3103 17.943
-21.4936 -51.7936 13.7294
-20.2339 -55.0445 18.6237
-20.8886 -59.6657 10.4725
-18.1613 -49.5793 14.5801
-17.6166 -45.8327 11.2001
-10.3917 -54.1198 10.4981
-11.8575 -49.3929 12.162
-14.5686 -50.6346 10.5818
-14.8248 -49.9127 13.6223
-14.0556 -50.3615 9.47114
-13.905 -47.1508 17.4928
-9.65952 -50.0383 10.6339
-10.8372 -50.3289 10.1645
-8.39437 -51.376 9.21168
-8.90168 -45.8371 8.73202
-41.8378 64.8715 -43.8263
-43.0287 68.6019 -45.8298
-48.526 65.9233 -44.5181
-34.8831 54.1206 -45.7784
-41.8918 61.274 -45.1874
-44.6704 64.752 -45.4934
-31.6563 56.5922 -38.9083
-1.03615 -50.4417 17.1487
-1.38971 -51.6929 21.7996
-0.910366 -51.7959 18.0281
7.36467 -52.5719 18.6113
4.04656 -47.5562 19.7115
4.20172 -47.4561 19.0381
4.6997 -50.4887 19.0192
6.53893 -52.3017 23.2079
11.6537 -47.8147 20.6814
8.21288 -54.7577 18.878
16.2857 -45.7063 19.8023
15.2248 -48.8102 20.0003
8.62938 -49.1163 16.3854
13.7449 -48.0368 20.7857
12.952 -47.0474 14.3887
13.6574 -47.3015 25.5628
18.4828 -48.1533 21.7254
13.2992 -46.1161 23.3404
23.0828 -48.2769 19.1831
19.2889 -52.562 27.1913
15.8405 -49.8245 22.9608
20.3626 -50.0606 32.8193
22.7884 -45.053 22.6071
23.5299 -45.5062 19.7144
18.2752 -48.8906 22.3978
26.5488 -48.661 24.6363
27.0681 -47.2429 23.3555
23.7407 -47.5579 23.9513
26.672 -46.6963 29.2627
27.2163 -53.3064 24.5485
33.5143 -46.9211 24.5178
30.6641 -44.6529 20.1463
34.3356 -43.8112 23.6093
26.6552 -49.6834 19.2358
38.3355 -49.2506 24.4418
30.0379 -48.1203 26.1056
38.2271 -52.3899 25.2903
34.3642 -50.4601 24.8311
36.3586 -49.6465 18.3431
-46.0107 28.8342 30.219
20.4249 20.8618 8.69497
76.0716 -5.38252 -25.9434
-59.5311 11.7476 -8.15863
25.7357 16.2035 15.9052
-47.9977 26.7511 22.1916
-30.4156 53.7813 -14.6304
29.3884 35.9276 -13.0149
-46.6772 41.8454 20.0827
-51.1601 27.5193 25.3703
-51.1372 49.5906 13.7571
-52.0753 40.3995 19.0262
-47.1184 47.9711 18.6271
-48.8094 51.4421 11.0748
-43.645 52.1034 11.6817
-37.7473 50.9939 11.1458
-39.6468 47.8008 7.79148
-37.2077 52.0223 7.11069
-35.1855 52.1554 9.43643
25.0668 32.4899 -8.96358
23.8626 35.8448 -12.2676
58.8418 -53.4454 6.07796
61.7653 -52.7921 3.49278
59.5119 -54.7593 0.341483
65.3337 -56.8639 5.04588
63.5708 -49.1785 1.50474
64.9846 -55.684 4.43691
61.9743 -47.257 5.6858
65.9209 -49.4464 8.10619
69.5198 -58.583 4.31654
-57.8627 46.588 3.20113
30.4335 19.5447 14.6795
-51.2066 32.7399 24.8267
20.9766 29.976 -16.5775
-40.2207 54.3379 10.3242
67.7625 -4.91067 -6.02344
27.2883 15.5197 17.5032
66.0074 -0.390498 -11.9006
-11.0145 75.5407 -29.7838
9.91808 87.7592 -41.9362
66.6411 -6.34238 -3.07756
1.27632 23.2027 -18.7251
-9.45928 26.3705 -24.1969
-13.9591 26.0792 -20.526
-49.7387 63.0405 -42.7537
-43.7041 61.4069 -40.061
-39.1171 57.1625 -39.6739
-33.2832 49.1719 -33.5867
-42.1295 53.1323 -28.4123
-37.3433 60.5201 -38.2036
-41.1527 65.6914 -33.3214
-49.1883 62.4048 -37.8966
-23.4683 -48.3001 13.6531
31.047 16.2417 13.0204
-27.3892 -48.4714 7.57943
-26.9799 -54.8844 15.702
-27.7253 -53.279 11.2868
-23.3701 -51.5434 12.8316
-20.7183 -47.3615 8.74367
-22.5656 -50.3621 20.2334
-19.8131 -49.8067 11.2855
-22.5318 -52.6235 10.6702
-16.5968 -46.396 15.0928
-15.6772 -50.944 17.9452
-17.5958 -55.1301 10.7755
-9.13814 -52.0742 13.6823
-17.2343 -50.4999 10.8948
-15.7962 -44.214 9.98891
-8.8908 -48.0207 18.4938
-9.57659 -50.6552 6.28353
-10.4452 -52.4733 14.2398
-4.35452 -45.6842 11.6839
-12.5794 -49.6781 12.5488
-7.87282 -48.1035 9.50914
25.4957 -1.33978 23.6632
-7.80545 26.2218 -11.2835
19.8228 -0.768339 23.1289
-15.734 30.2887 -9.2613
-35.9963 60.1783 -13.6941
-49.421 60.168 -38.1307
-3.50479 -50.0582 12.5521
-0.710532 -42.7752 18.7521
7.69935 -44.3403 23.694
-1.2486 -47.0044 20.3513
-0.590868 -47.1575 20.4297
0.129892 -47.874 18.1363
2.37347 -45.802 19.2275
5.25378 -45.6793 22.4043
3.10742 -49.9664 18.6102
10.5848 -47.9344 23.1096
12.2541 -46.3941 15.1815
6.58122 -47.6218 27.8217
8.0544 -53.1663 24.2279
13.268 -47.6785 25.2757
11.9388 -47.282 25.01
13.8977 -45.3208 18.2274
13.9486 -50.8985 21.7766
9.43405 -46.1277 22.8449
16.8747 -48.6433 22.6332
19.717 -45.9845 25.7649
14.9176 -47.9787 30.2015
16.893 -45.6384 22.2722
