-15.9539 65.4617 -36.2301
7.16483 28.6256 23.2639
17.6492 -72.3892 18.5701
56.074 -71.3736 -52.2445
20.5159 10.2994 -7.01079
93.8875 49.1799 6.55699
70.9143 -56.5358 -26.6726
84.7357 3.52088 -36.1473
125.374 -28.2006 15.8876
73.9539 -65.7151 -75.4065
4.65085 49.0465 22.1523
-11.8727 107.84 25.7874
45.3832 15.5618 40.0967
37.3756 24.0207 -7.83991
113.663 -45.8364 -27.6369
-7.52069 -33.5783 -1.25239
26.584 -39.3033 25.8496
61.0242 -79.8635 -17.3599
-23.4529 23.2809 -7.02725
-2.07431 -37.7522 29.4949
-29.9071 74.159 13.2929
-4.00505 -16.3622 27.2547
63.4528 143.312 28.9818
39.4468 -10.6068 134.532
31.7119 8.45448 55.4732
29.1531 -85.5166 5.69816
58.6505 4.76724 145.861
118.118 -56.3896 -22.5053
65.3026 66.1629 -10.0212
62.4042 -28.3814 30.0652
28.0703 99.9843 46.6098
73.7535 74.6619 45.192
76.8459 -32.869 -60.8873
7.67884 45.5965 12.5329
81.2941 24.3745 45.215
65.0931 -26.2179 44.0386
16.4664 35.9375 12.5994
41.4284 -26.3636 -7.42477
27.9211 -93.4686 81.1871
-16.7429 -50.4128 -36.2954
28.2235 24.9072 -54.916
23.8435 8.2223 11.4425
-7.54856 56.5572 7.33056
38.1101 8.02163 12.4779
84.6865 -50.483 3.28917
31.1177 -6.14531 -29.4875
-3.40281 14.1876 16.2119
27.0263 -64.7585 65.9942
-15.8398 -38.8208 20.812
-4.91154 -134.065 3.5066
-35.1389 18.7741 94.3585
25.766 164.719 4.60285
-73.0706 116.923 61.3584
-61.2211 -57.2102 74.9873
29.9679 -31.1317 80.2635
65.4671 58.5176 80.1857
-37.177 -41.2591 109.863
-59.7397 -35.5568 66.954
-62.34 -22.2451 12.1224
-36.544 -68.939 -29.0021
-58.8969 24.4121 -4.26364
-4.50656 39.1328 42.9768
-75.3932 14.6043 12.4255
33.1245 35.8751 49.4014
-34.0546 -6.76356 -26.731
-28.7259 -116.79 40.1166
-121.519 -32.4502 58.4652
60.6376 34.3018 80.4611
-0.790799 -77.1211 -122.516
77.7441 -9.57853 46.0557
-1.83432 144.37 18.107
-44.469 104.326 56.3158
-52.9562 40.582 27.9872
-135.376 -8.13269 -77.7459
-74.5886 -92.2117 14.3847
2.72 -39.372 -42.1199
-23.676 -63.6197 48.0082
-67.025 -118.279 88.3657
-60.3116 -129.702 14.4049
-115.056 -165.376 35.9119
-3.82289 80.7699 41.0018
-28.2482 47.5887 89.6685
-125.982 52.185 23.9757
-17.3113 43.6943 -39.5645
-91.2523 67.8261 89.9915
-43.839 62.2151 95.4381
1.22774 -67.2402 15.1339
-3.18304 -51.502 35.6447
-23.6912 -52.9959 -19.2554
39.1891 -131.023 -13.8241
99.655 27.9997 116.975
8.63651 0.975408 39.1286
-95.5416 38.1004 -47.7177
-68.6013 -1.7759 64.4992
-154.237 -28.277 37.2626
-44.9812 -77.6555 15.8194
-87.2647 -48.364 64.6355
-37.5735 -51.6649 64.478
-5.84671 -77.9907 56.3169
50.5386 -19.1137 63.3457
77.4996 81.5041 15.9311
-62.3785 134.604 -1.92435
30.2739 68.3205 9.74751
-21.8922 31.7966 -11.3876
-24.0541 -38.9977 44.5545
-38.658 -100.339 39.6374
-66.4155 17.5706 0.373239
63.8725 1.45913 -28.4487
34.2121 -32.7707 38.4523
17.336 104.991 -26.0444
-4.01045 91.0011 28.6251
54.7315 65.779 -41.6239
63.7417 -8.34019 -83.6606
59.536 57.8529 0.612163
-63.5376 -0.625157 19.6852
-92.2998 -129.16 35.9664
-17.093 -47.2279 -17.2906
-51.5281 -69.5058 68.783
15.0682 -77.0726 -7.66491
-3.98257 -58.2015 -47.5111
13.107 47.4791 -59.3535
37.3812 88.3309 4.60556
-68.3786 19.7097 -18.6467
22.0796 27.7717 -49.1812
-6.22179 -9.69676 -65.3826
-24.0412 -1.03493 23.4007
-28.4909 29.0447 34.6109
-81.3372 -44.9741 65.6963
23.4791 -37.0115 -0.799692
-25.15 -56.1825 39.6499
-54.8682 107.852 -28.259
-22.6928 65.2305 25.3174
-7.57556 102.021 -14.4776
27.3921 20.8781 19.1196
-102.229 26.0467 -26.5293
74.4471 -14.8944 -106.367
-77.0832 -90.3091 -113.458
30.4531 -9.78983 8.21159
48.1761 -20.4476 58.909
24.316 -53.7406 61.6995
74.1742 111.558 58.218
72.1697 37.0082 -120.047
14.3165 32.623 -17.7067
60.1555 -20.0098 -12.5013
25.5516 20.941 34.1989
-28.1499 25.8537 -17.9899
115.779 98.8691 -105.633
-5.03143 -12.3407 80.9567
29.0282 -76.3027 11.439
33.8225 -94.8657 -71.7319
-16.6962 48.3012 8.59699
-76.391 -56.6892 11.7508
30.494 -0.977478 54.2312
-55.5325 100.354 -31.8314
51.8234 63.8633 -2.36254
39.9681 49.3969 -168.496
5.4909 -3.26365 -50.7936
-88.2338 9.68635 9.25465
88.3853 -50.0186 -27.1512
30.2845 -78.4511 -104.706
-38.82 18.3132 26.7805
29.5081 84.9499 -57.0623
26.341 48.6914 -3.24846
-2.48666 -74.0616 -4.51192
-2.51774 41.6203 -51.6054
45.3857 -0.466773 -162.996
-9.80941 -30.6792 -64.6243
36.1304 4.59829 12.1587
10.1926 -34.361 9.6047
26.9552 -155.072 32.4063
-114.287 52.2129 23.7086
4.20399 79.0228 -26.7675
80.0282 40.8864 33.7052
82.9706 75.2249 -44.8918
45.6533 -6.84779 42.2407
-55.1662 6.60665 -117.701
123.48 -14.2949 41.9683
25.3709 -60.5591 -109.315
39.7764 0.811931 -19.5092
-40.8636 -95.7398 67.4081
46.3704 66.7133 -30.7127
-0.596552 65.1236 -7.40594
64.0789 68.1944 54.4951
14.9537 85.9901 -17.288
-15.916 91.6878 -30.8464
-10.517 18.3336 -6.16312
15.8485 -67.1567 -32.4124
156.789 -34.1562 75.6052
4.1669 -16.0767 -23.5542
1.26572 -36.6834 -14.9174
25.7654 68.2878 -52.0931
31.086 20.134 66.0473
-57.0874 7.84449 35.2676
-58.6579 -19.1866 14.562
6.09485 35.0934 -57.5562
69.6563 14.6938 -14.9277
-22.3973 -10.4477 44.9566
119.828 -31.1978 50.381
-42.0703 -37.7657 -56.0275
-11.932 -132.971 -54.0235
