27.4178 78.0749 -19.6782
-31.7705 177.128 -18.3106
-50.5889 90.5028 -20.2381
-60.6427 95.4451 40.8432
-85.0517 117.817 46.6519
-57.655 129.677 -9.33519
-32.5942 34.4438 -15.6261
-35.0147 104.835 -18.1194
-54.7541 134.048 -12.4171
-81.6352 98.8605 -10.16
-10.6795 30.7003 3.98874
-54.3419 68.4488 -20.2329
54.9499 42.4338 15.4659
-3.57761 126.813 -7.53832
-40.7907 159.262 -5.19587
43.3847 33.1006 19.0186
-29.8728 34.6303 43.4694
63.9796 57.0406 10.7838
-58.5817 134.236 30.5103
-40.8333 63.8528 -13.0146
-57.6177 129.395 -12.7028
-56.7027 43.0754 7.11611
-48.782 107.816 -13.1861
12.2001 63.1193 55.5351
-57.6854 49.1479 8.48482
-1.4546 30.2539 -5.93676
-30.7354 116.527 -13.2426
-22.2583 104.669 37.5792
-30.0864 100.563 -16.6373
-79.6961 101.07 -8.18894
-70.3331 149.465 5.70233
18.889 99.4205 -22.602
8.65914 36.0615 28.9359
-3.24679 96.8649 -26.7337
-89.583 121.666 7.29745
-34.8058 35.5868 -2.23617
-82.633 88.8899 33.6706
-87.1131 73.6072 12.3378
-44.8692 81.0644 -24.2625
-69.4437 127.971 47.951
2.59295 70.4332 58.5787
-13.0592 59.2201 -38.0152
-84.6129 132.588 44.5249
-6.00721 181.336 -19.3017
50.0639 60.6469 -4.77259
28.8053 68.9573 46.2022
27.3449 51.3715 39.0628
-43.7621 68.147 -23.6053
-40.5812 34.406 8.86933
-19.1515 112.636 36.4028
-72.4526 119.495 56.2637
19.4203 71.1376 47.7039
21.0739 118.72 2.9835
-81.892 96.4117 30.1869
-65.7909 146.015 -35.1298
-63.7192 34.3208 34.646
36.9488 109.108 7.28805
-26.5789 92.2844 -28.3152
-33.3876 111.937 -10.3411
-51.5685 64.9665 -16.9123
-10.1698 123.093 31.2756
-97.3783 118.717 35.3708
24.2429 118.648 11.6256
61.7926 51.4811 4.25703
-30.3127 60.8575 -25.4718
-79.2787 142.167 0.304314
-15.3357 122.453 20.5335
-71.5634 155.127 -55.6023
-42.5834 152.541 9.13255
4.79254 97.4944 45.5552
-57.4725 147.848 12.9682
-58.0513 57.1142 21.8202
-85.924 136.857 20.6553
23.3412 123.341 -4.42157
-30.9424 64.2529 42.7517
16.8827 103.199 40.7337
-10.5476 59.9832 54.4826
-77.2741 150.763 -6.37953
-57.8573 42.0886 -4.8679
-54.7688 155.157 1.79187
37.3648 65.5652 36.7579
-49.1041 110.226 -9.31074
22.4063 59.4121 -26.6174
-91.7553 84.3325 13.4082
40.1748 73.6007 -3.25716
-80.7576 95.2273 33.4686
-6.19837 94.8152 49.4394
-7.71527 70.544 -36.6088
-56.286 34.5131 7.62638
-64.5432 108.706 41.5099
-70.646 82.113 -15.02
-74.978 79.125 -8.43999
16.4282 113.178 39.9916
40.0893 59.2619 27.3594
28.1487 120.941 -5.66065
16.9804 125.767 17.6047
-9.31484 118.877 -7.71728
-54.678 73.7255 43.5242
14.1616 107.301 40.9
-31.9957 100.397 -21.6203
36.394 117.219 17.8136
-60.4232 35.0494 8.27689
39.3652 55.0968 31.9915
-24.1525 86.8295 43.3882
-69.928 145.297 -23.5539
-53.8628 130.085 -3.51099
0.014092 49.1357 -36.5738
-58.3318 88.9512 47.37
-43.7314 164.487 8.00503
-5.31834 65.7801 60.077
-72.7824 149.509 26.0855
0.817362 74.3962 -35.4508
-35.3653 127.912 8.33325
-66.1104 107.09 48.7318
51.7196 38.5051 17.072
31.4132 70.8401 34.5172
-82.2855 150.758 16.7531
-56.6966 105.447 -18.3693
-12.2802 42.2026 -25.2766
-27.6822 74.1819 -40.7245
36.8215 46.1445 -4.16702
0.982749 36.6278 47.3171
23.0236 31.7599 9.37849
-9.82149 82.7385 57.9501
8.0428 68.8354 -29.4145
-59.1214 48.2182 10.6889
-56.385 111.651 -21.2101
-90.0568 134.056 24.656
-71.5279 73.9282 34.3998
0.770398 37.8088 -13.2548
50.1402 68.3378 18.9072
-66.3446 55.8566 11.1647
-83.7114 83.0202 -0.148051
-8.29381 40.8311 48.5399
-64.0833 143.895 -27.0685
-13.6152 36.6495 3.00059
-62.5521 25.8582 -2.16755
-33.8856 76.3783 -35.7468
-50.1808 59.2184 -14.027
34.2861 57.1037 36.8085
-7.13766 33.9579 25.1768
-40.544 27.7013 -21.4929
13.6897 29.536 -4.01655
21.6702 77.1747 -28.5444
25.3979 102.348 -17.9751
-80.2963 152.622 21.0261
-60.8057 44.663 -11.374
26.8587 47.6611 44.5779
31.1258 99.7141 38.3739
-68.2887 61.7544 -0.339396
-98.4756 120.449 25.4145
-64.975 44.2622 12.5186
-57.7929 55.8255 14.9092
-78.1683 134.905 45.3452
11.2842 51.1237 48.0625
-77.4336 73.3974 8.41917
-62.999 73.5242 -20.6613
43.5069 86.7804 6.48132
-12.2205 174.639 -30.182
44.0634 50.5519 21.114
-47.5272 114.403 23.2512
-21.1141 69.9058 -38.385
-42.3342 144.507 -7.94818
-22.1356 85.8647 -37.1092
-9.02817 72.5573 -40.9174
-25.1113 37.1364 53.1984
-59.0797 107.193 -6.83386
7.78437 101.545 44.0405
-17.4008 114.623 30.8774
-69.3706 146.157 -18.9628
-60.4497 145.597 -8.12162
12.9453 64.1287 -29.5571
-10.6139 105.892 -24.2035
-96.7172 125.805 12.203
-71.1311 97.5109 38.0722
-6.35531 31.0282 46.9073
-36.776 43.6419 52.0627
-73.6424 165.824 -30.6052
-85.6932 133.74 40.9206
13.077 54.4163 51.7377
-61.9517 152.562 1.112
-64.6058 38.1247 5.77704
-16.1211 67.5493 56.7954
-26.3952 119.565 -13.8649
46.2865 67.4961 17.4727
-46.5698 31.1065 3.7842
55.3076 58.4339 26.4234
44.2497 77.0774 18.1294
-18.9159 102.181 47.9475
8.94927 132.095 12
8.40722 32.0012 46.6051
-4.71679 27.3043 46.7371
-3.54078 44.0097 -30.4557
25.7425 58.5527 -20.9461
-91.4639 123.96 32.6637
25.5156 36.2411 29.8531
-56.9802 91.9324 -23.0008
-1.34908 65.5141 -27.6842
-28.7603 27.7427 -30.2588
-49.2014 138.1 2.50671
-65.9968 144.194 -27.3552
44.9226 75.8431 19.7037
6.10736 59.1353 -37.3011
34.7711 59.7125 -19.658
-89.0498 125.789 2.02537
-65.9161 97.7748 -18.1665
-63.9516 34.7063 36.2073
-19.5498 153.309 -11.7234
21.8506 121.255 -0.80612
-82.929 84.3177 29.0516
12.1936 113.272 -17.4519
-46.5511 112.019 -17.9458
33.3384 116.283 16.0915
-44.1555 59.7993 37.2234
29.5034 85.688 -25.2746
-68.3331 82.1492 41.9606
-33.2361 81.8424 -20.2962
-62.5639 163.332 -26.9386
-77.8734 95.1757 3.40842
-2.20207 124.501 -5.64017
36.0982 90.7658 40.0329
-2.15095 36.559 0.423413
9.66535 112.205 36.3935
-24.6502 116.191 15.4995
-43.853 100.608 -12.9034
17.3214 124.908 20.9639
6.56173 125.561 7.15503
-88.7202 136.483 42.4778
3.70644 111.042 -10.0603
-26.5813 117.082 14.2562
-38.9652 82.393 -22.5367
-33.323 81.8256 -23.1089
24.1091 57.191 41.3282
-22.9163 37.4617 28.8139
-25.0695 44.451 45.9705
0.998895 130.713 13.9835
-92.7453 123.23 41.7134
15.3127 82.1238 53.2344
-74.2346 92.5705 -15.6472
-34.3955 108.124 -15.6187
-87.2291 131.301 36.7849
-80.4211 108.263 14.9677
-86.9497 91.4686 -5.64442
-85.4812 86.0854 12.4694
15.1953 118.372 -12.7288
-35.4206 29.3225 31.197
-61.0145 114.961 -11.8536
8.45462 92.1768 -28.011
54.9678 47.6038 -4.82334
7.83597 98.8141 -18.7769
-74.3718 154.467 -9.82704
31.0915 91.5775 41.8708
-62.3539 92.3224 40.7771
-72.1219 166.043 -47.6529
-59.0938 151.327 34.1329
13.8607 119.284 34.4391
-44.8988 36.2812 -23.7751
26.9503 101.211 -21.5469
-46.108 32.5127 31.1226
34.0363 42.125 -6.00825
-22.1096 46.2318 -26.587
-65.8562 125.845 -9.71579
-67.528 29.3479 12.9542
-48.236 130.496 0.672475
-76.8093 98.1164 28.677
45.6334 38.5889 9.63982
-65.9932 150.019 -40.5285
-62.7696 53.2962 22.6957
-13.3327 34.1453 17.7872
45.7745 34.7581 17.516
-10.1351 172.124 -24.7985
-17.9209 86.0806 -43.6788
52.0515 64.2035 4.93314
-58.7109 87.4272 45.9466
25.0332 38.9204 43.8134
43.8383 91.6855 29.0423
-26.9663 119.918 12.4811
43.4896 35.7569 0.916371
14.9181 86.1103 -34.5265
-60.9717 98.4116 -22.1342
-55.1089 138.969 7.91361
34.5565 114.676 27.3094
-63.058 145.778 35.1665
0.772904 132.955 16.9318
-5.39268 130.369 9.06334
-39.2128 126.322 18.967
-0.652114 31.8588 -1.81582
-93.4951 120.007 35.0994
-67.3171 39.3539 0.792148
-33.103 87.9276 41.953
-44.3149 125.986 7.02376
1.89171 84.4169 51.1017
-55.7338 32.2951 33.7145
-33.0238 105.083 32.6626
-11.5649 107.874 35.3998
40.6436 97.338 -7.16287
-51.0355 63.4599 -15.3593
15.4082 28.7955 46.0069
24.7696 44.9791 39.9236
-39.7652 120.587 22.5517
-37.8572 114.354 30.6738
27.4861 87.5307 46.7717
-81.664 117.19 2.47328
-29.277 39.7993 -18.4872
-87.3 105.727 13.0324
20.0601 66.7135 46.9164
-71.0199 173.641 -42.9884
-77.7634 90.1985 38.208
-26.8696 81.2761 46.8186
1.6471 43.7873 52.2277
-43.0862 68.9329 -13.6314
-24.2972 33.7274 -12.2055
6.94631 51.8448 51.0242
-63.4815 48.2018 3.25486
-60.3837 80.3688 48.0339
-65.6612 154.336 -11.9837
-61.7739 66.973 -13.8298
-54.6877 149.526 29.3373
-72.9566 149.204 -34.5546
50.6388 87.2166 18.2628
-67.8759 86.1311 40.8982
-84.8922 148.76 18.0003
-10.1994 33.7103 -12.4098
-47.6736 32.5883 -16.6119
-45.7508 92.2498 -22.3806
29.9777 54.2486 -24.1274
-19.6595 188.501 -21.6682
-52.4098 62.6283 30.7697
51.1746 53.8052 0.782613
-90.4829 134.739 29.2871
18.1565 39.7503 41.2382
-53.1175 142.262 17.6184
13.7807 46.5911 -29.6041
25.0911 31.7949 26.192
20.9364 85.997 52.1541
-4.56041 98.2775 -18.486
-60.7621 116.505 38.2231
-31.4057 110.457 30.7908
9.6864 55.8928 54.937
29.8182 107.768 -5.54495
29.2807 70.1155 38.8909
-59.4755 39.4797 17.4834
-2.3156 41.0109 44.8624
-23.6452 38.6566 -33.0351
-58.4902 158.216 24.8317
60.2927 47.7329 0.0879658
34.7253 79.2524 -15.2497
-35.3169 66.8432 -20.0246
-68.4766 92.8674 41.4841
-47.0799 134.637 17.9802
-91.6835 91.6913 5.65163
-69.7099 63.3695 20.9379
-23.0153 67.4749 -40.3685
26.3005 64.5133 42.9823
28.8293 102.772 -20.6183
-81.4636 145.101 1.49829
-45.6086 92.872 40.1001
-86.6725 70.569 14.8365
-0.836971 47.2554 -30.5279
60.8211 63.8877 7.98987
-53.7481 53.1988 10.2935
-97.8347 109.279 14.3276
-67.0492 107.683 -9.54034
-9.76531 38.5791 -12.6821
-64.8847 125.865 47.8512
-32.8917 147.26 -5.06841
55.9339 60.3359 30.448
39.3114 33.383 -1.60441
59.2645 66.1846 13.8543
55.5827 50.5954 -4.1663
-69.5331 80.3539 -23.6059
11.0226 71.3406 -27.6583
-83.422 111.482 47.9456
-48.0429 58.9178 43.3972
-68.1127 136.347 40.4465
-80.9518 120.03 -4.24597
-11.597 36.1858 -27.0383
-1.51389 93.6023 45.3695
-61.4382 165.178 -63.6187
-3.09272 39.4188 7.29336
-81.5012 67.493 13.3616
-33.8656 105.748 -23.2113
10.5788 97.9164 -25.3745
-27.0857 48.6758 -14.0127
-73.5028 122.363 -9.29518
10.9908 78.0864 53.3846
-29.7217 79.1451 43.2416
-40.6594 166.228 -11.0275
-63.493 163.582 -25.2049
-18.2061 125.493 -1.65834
23.0448 55.741 -21.1355
-34.692 44.3108 -12.4067
-19.0027 157.887 -15.3857
-64.4174 62.5186 27.9364
-61.8728 67.6259 -10.7635
-58.1101 69.562 40.1928
-26.5498 158.149 -13.8122
5.37831 120.245 -14.2393
55.3814 54.9983 24.0367
51.2687 51.5212 21.1354
58.0705 70.7258 12.3186
-91.6553 88.7382 13.8601
26.4211 103.198 -15.9577
-77.9956 73.6612 -0.894073
-86.1721 120.817 0.0999475
52.0806 50.2144 -7.62128
-74.3925 132.929 50.9476
-75.446 131.197 -3.81079
-6.04272 117.273 -21.4885
-51.5694 36.6644 -4.8881
-95.7474 121.11 35.9175
-23.4517 97.7102 44.1867
-73.9099 72.1289 40.8073
-37.9657 31.6675 42.7305
11.8737 83.2907 -35.4416
-16.8034 40.0865 -30.6717
-35.1456 50.5202 -12.5545
-15.0187 166.758 -17.5266
47.1436 80.6935 6.76107
-60.4463 96.3996 -17.018
-53.0554 29.8923 -0.314574
44.4824 74.3197 26.86
46.3931 46.6095 33.8846
-38.7687 39.1097 -7.91468
4.10307 34.0383 41.3338
-17.432 164.214 -16.1305
-64.4702 39.3295 33.2926
-82.3976 109.578 44.1686
-45.8041 65.4101 -12.1267
-72.904 30.5093 -3.75742
31.5403 82.447 45.7146
-7.38715 53.9216 -35.5387
-17.326 88.8239 50.6393
-91.2023 113.259 48.7261
23.6189 74.9411 -22.8633
-90.8667 92.2656 6.84969
-70.2883 117.835 -8.32607
-63.9396 144.826 -11.4626
61.9491 60.1422 20.7937
-57.0424 171.64 -54.9464
-70.5435 151.323 -42.6265
46.6575 80.8639 18.6502
3.04559 33.8128 -13.5316
-8.99257 68.378 58.3422
5.36876 100.989 43.8315
-0.36742 57.8787 58.9053
0.379606 56.3327 -31.0352
-15.5997 126.188 8.98585
22.67 113.125 39.5761
8.20852 71.7526 52.2606
-23.8683 173.077 -1.27312
-56.5225 63.6661 -13.0139
-25.0256 164.293 -8.24656
-67.7771 34.4393 16.9474
-69.9305 125.781 -7.84184
10.4865 57.327 54.6207
3.37936 71.662 -30.3619
25.8564 121.229 -1.55353
-24.1288 47.2608 -27.8051
-45.4631 32.1787 0.82648
-46.1209 127.787 3.08697
-27.2612 66.3208 44.1019
56.2346 47.7926 12.9924
-75.003 156.382 20.666
-24.2775 122.3 12.1807
-45.5976 103.729 40.9503
18.5568 100.873 43.0787
23.1261 41.7646 45.3202
-1.39983 91.9609 -30.6559
-72.3312 143.742 -11.306
-71.2382 107.655 -8.14564
-32.024 102.507 -27.1049
11.0754 101.055 -19.2502
47.5735 43.1826 10.8002
29.8364 45.217 -8.11595
-59.1392 128.846 32.5841
-11.4864 176.334 -15.9396
-65.3503 104.431 40.2202
-64.847 75.2672 -24.1314
25.1586 98.0941 -14.8883
-96.0477 122.607 12.5772
-41.5963 67.3286 39.2341
-31.0328 119.855 -9.08775
-25.9142 86.0123 50.1372
-37.6959 172.49 -6.18886
-45.3386 73.6384 -13.4418
-48.7532 118.241 34.7397
-57.0969 135.258 32.7227
-84.0663 134.526 43.4068
-83.6012 129.681 0.338625
25.5455 69.6584 49.7398
-84.7398 124.886 -2.28005
-76.0482 80.3489 35.3841
14.0503 98.0049 45.8912
-27.3935 181.671 -17.0009
-78.5362 150.66 27.2498
-76.8616 95.0467 35.8554
-73.7553 69.4836 -13.0563
-78.0272 92.6688 40.1378
-1.74713 69.3516 -42.6839
49.5348 44.9726 27.3901
-25.181 166.256 -7.96331
-39.2321 31.9555 -21.9139
33.4959 112.899 -3.61126
42.703 40.8863 29.3444
-15.2399 175.909 -22.0578
-27.8568 69.9159 -40.5716
15.2859 107.781 44.1877
-34.2496 37.7674 -29.7295
22.2801 115.353 -1.38322
31.7395 113.599 -9.82986
-33.9315 151.581 -10.489
-31.498 161.927 -5.09277
-94.0232 127.261 23.7044
35.2241 110.541 -5.38916
5.97844 112.064 42.7763
-16.9922 53.2972 43.5601
-0.00677195 95.1106 -34.954
44.4844 77.6096 10.3001
-18.9223 161.574 -5.27044
23.0642 75.2179 -20.7385
6.29831 60.1649 -35.8465
25.2367 110.106 40.2693
-91.076 137.1 18.7199
-67.9774 64.715 3.19622
40.4666 36.8071 13.3912
-74.8984 65.6145 33.5708
37.5001 88.4586 10.9777
-26.3135 65.1943 -20.3373
34.5476 99.6313 29.646
-42.7161 66.0231 45.0009
17.7493 43.1433 41.3892
-11.2447 85.7665 -31.8465
-49.8322 82.9813 -17.8557
-17.4206 32.7994 12.3892
-88.4294 87.9965 19.021
-56.4086 78.9668 -21.8574
-93.0284 127.626 42.882
-32.7064 117.462 33.3124
44.376 66.9359 3.16626
-52.3842 49.9741 24.0154
-40.8326 41.27 -28.8916
-15.6063 67.6913 56.4526
-67.0918 163.104 -32.0868
-15.9655 33.9513 0.989546
-46.6573 131.534 15.2426
-27.3051 155.637 -11.315
24.5763 96.9262 42.1086
43.4901 90.6314 -2.9698
-8.8855 124.978 -3.38211
-47.6857 94.4617 -21.6339
26.5244 114.919 30.3808
-19.0412 103.703 44.924
20.7087 118.926 14.6426
-86.8816 107.245 22.9984
-25.4147 186.094 -15.5472
13.0041 60.6613 -29.8442
-53.3982 137.101 23.5294
28.1706 32.4457 3.13237
5.74837 117.089 36.7351
59.2999 62.1102 25.1551
1.90878 113.123 39.467
-69.382 143.133 -15.3858
-9.20523 108.124 39.9607
4.87469 113.579 -21.5529
-52.8194 141.222 31.4647
-90.4386 133.587 4.40591
41.2646 54.1191 -5.45642
-27.0399 75.0341 50.694
11.0288 114.89 31.6722
-17.5634 174.273 -16.5569
-59.7085 103.93 38.8306
-66.6153 106.057 40.4664
1.50968 125.423 15.446
-69.5485 142.241 -17.8484
46.1086 43.8091 17.4168
-84.5273 100.865 2.31771
8.08271 113.446 39.9697
33.1966 97.9944 38.4037
-53.6999 151.811 26.4085
-4.67524 44.2219 47.3098
-79.2904 140.576 -1.22689
-89.1503 107.974 46.6892
-23.3523 30.2861 20.0981
0.737691 59.9793 56.6766
-20.9841 158.897 -6.32885
-56.8166 151.866 24.554
11.6801 33.5014 -14.8197
-28.7364 97.0327 42.9664
-49.8741 147.179 16.4061
-46.7599 145.603 5.63984
-15.1353 86.7786 -37.6472
-81.2903 81.5826 18.7905
-41.2121 149.325 0.937422
-62.2743 147.347 -12.023
-33.4406 56.7347 -12.2576
-23.7788 90.9815 38.3459
-65.4592 123.184 45.0407
-56.3848 117.021 39.4701
-73.9745 123.411 52.5992
-36.9028 59.717 -14.1463
-43.7322 148.5 9.16513
-70.6765 139.79 -10.4903
-90.1494 90.9305 10.7928
-63.1697 147.133 -11.8775
-82.6576 76.1941 15.0565
-58.2588 158.624 13.4166
22.5936 88.9748 -19.7213
28.221 119.934 5.43973
20.1924 57.2445 42.5675
-76.218 177.481 -46.1016
-57.9126 136.667 24.7628
-21.4208 64.3818 -36.1675
-58.9689 148.099 -5.33278
-3.90201 121.417 22.2513
-58.6101 40.5923 18.5015
-33.7046 157.873 4.72323
12.1017 122.667 31.6209
-72.7392 77.1586 32.456
46.2253 79.7745 16.1999
-35.7362 170.721 -10.7134
-28.8601 57.7341 38.9691
-60.4562 137.263 -4.21166
11.5599 54.5571 52.2036
-30.0906 161.563 -18.2043
41.157 71.8221 -10.5441
30.49 64.2727 40.8387
-55.3946 156.257 4.40817
12.3244 103.911 42.258
-85.4987 153.061 28.0197
-20.7766 109.417 -21.2507
-30.7178 65.8261 41.4364
-60.5695 59.3989 32.7516
-25.5885 66.482 52.1907
-68.2728 138.548 -9.13367
-29.748 111.994 24.6181
-44.1092 94.3571 -26.2869
-91.6197 126.135 16.558
-60.1934 54.4398 2.43574
-4.57619 128.235 -1.86231
-37.0869 146.121 2.9838
-11.9275 34.0451 -24.6406
-93.736 118.988 3.91436
-15.9881 36.4274 46.0717
-46.7331 127.188 19.1795
-21.0954 158.101 -2.00005
-36.4615 33.9702 -2.08795
-83.3582 86.0627 26.9882
-2.25801 63.814 59.3841
-45.4251 37.7871 41.7735
-25.8727 77.7608 54.0764
-20.3754 60.5349 -37.5652
15.5299 65.7318 -28.0752
-66.3766 89.9483 46.0909
-75.0031 111.543 49.6185
-63.7186 38.1079 -2.48601
40.6094 77.9675 35.3451
-85.3556 140.374 34.83
-27.0563 157.247 -5.93899
-50.3014 49.2138 19.7659
33.5253 116.667 -1.18332
-2.029 68.7505 59.1288
-27.5674 175.225 -25.4483
4.43534 29.2208 17.8517
-61.5646 54.9964 14.7863
-30.1389 99.5653 -22.9835
-19.9766 104.412 46.3324
46.9575 44.4572 4.67687
45.7628 92.3928 24.1824
54.3218 66.1501 4.18944
3.01314 74.7128 -36.8094
-4.59633 114.187 -11.8332
-73.0508 67.9439 -9.95912
-25.8893 91.3887 -31.2081
15.7224 65.1003 -30.1956
-91.951 121 41.9506
-3.35705 55.6708 53.4777
25.5275 106.699 39.1115
-39.0233 43.715 49.0235
-30.5967 33.0844 -30.1318
-89.9441 119.39 35.3153
-7.59984 104.834 43.963
-35.0954 50.4336 37.3506
42.4719 51.6986 29.3711
6.80571 33.7752 -27.4689
-54.7572 31.2945 -2.15375
-50.1766 131.406 -3.97959
-52.0027 76.5045 37.6271
-66.0445 145.102 -14.9638
-19.8405 180.113 -16.2605
-53.5981 34.6895 -4.55512
35.3533 99.6507 33.479
-80.1692 149.274 -7.00678
-9.99546 122.742 36.0344
-89.1625 103.449 27.0509
-8.67955 119.572 -10.9982
-36.976 102.611 41.0819
-32.2512 56.0081 35.1286
48.7233 75.1286 20.5832
44.6214 60.883 -1.86979
-88.486 92.216 14.2015
-36.7988 97.2699 40.6385
44.6891 71.7306 5.5852
26.15 53.9199 41.212
-11.1578 121.563 31.6447
54.1505 52.422 13.211
-45.2212 101.081 -23.5338
-13.3873 38.2567 16.1872
-64.3431 146.077 -21.432
34.3602 94.3298 -14.8291
40.5582 74.1298 42.4002
-42.5527 78.8443 -20.6966
-27.1693 56.0621 35.7965
-26.8922 34.4556 51.6664
-11.2265 104.936 -17.1993
-81.2375 95.6155 25.9944
-34.6403 68.0729 42.8672
-91.7632 79.1422 11.7295
40.6886 65.1853 -12.3722
25.6152 75.0699 37.4485
-54.8306 106.745 33.9908
33.4268 36.79 0.543668
-66.9814 40.8193 30.4042
-70.0956 124.855 47.786
50.1724 68.1044 17.9052
-9.98121 69.588 48.3446
17.9615 32.9668 -12.3101
-61.3315 78.7758 42.3017
48.523 90.8052 -1.39933
-30.1121 41.683 2.22616
-18.3784 54.8548 -32.3855
-73.2043 102.465 46.8234
-11.3596 35.306 -12.1825
-25.1212 124.421 9.95506
-84.1428 73.101 17.3131
-54.3016 147.6 23.8272
-46.7397 94.9432 -25.8458
10.5258 126.196 -9.89168
-11.3437 38.3112 52.9409
-31.4133 73.7488 -15.4942
-48.4463 40.6411 -3.12893
-52.8442 144.754 4.08631
-45.0433 119.171 26.4915
12.4375 103.599 -20.1824
-56.8394 147.63 33.9142
2.73465 52.0338 -27.0925
20.4226 125.275 29.7148
-82.8179 103.975 -3.07843
-61.054 53.0063 11.9957
-63.5605 137.765 -7.76388
-35.869 92.7057 47.4015
39.4996 75.664 -11.712
-30.4137 118.571 1.26395
-77.453 118.977 51.2802
-62.3456 76.3313 -23.8719
6.96757 111.428 39.629
-84.4573 140.023 32.9155
-91.1118 146.051 22.243
-15.8598 97.1262 46.6194
-43.3886 61.1867 30.6646
39.3077 49.0769 30.4123
-54.4727 128.073 28.3609
-34.5871 49.9649 -20.8879
-42.6416 56.6202 45.4843
-69.4198 145.956 -24.4264
-31.9304 32.0143 28.7924
-73.375 150.539 -30.0244
33.0155 113.593 4.00053
-62.9799 179.394 -59.7842
17.8072 76.4149 -30.2982
-68.1262 146.388 -11.7291
-74.877 153.999 -11.5303
-0.646124 123.644 -7.55005
47.8471 81.5611 25.7388
-25.3098 34.859 34.9174
-22.0755 112.297 36.3668
-21.5092 116.31 25.9941
-80.0384 130.683 48.6604
-64.7704 74.1942 40.5558
-54.1415 72.8138 38.9907
-8.75385 130.578 16.9911
-64.3392 144.55 -17.4254
-32.9913 25.2738 -22.6822
17.2909 49.2683 -29.2715
-4.30994 114.636 -19.754
-84.3351 136.138 37.832
-11.5419 104.819 -23.3914
-6.14949 36.8789 19.5545
-62.5476 31.9813 2.04617
-51.9171 62.4432 -11.9792
40.5164 67.1954 -4.12559
-20.4203 109.727 38.3411
-51.2582 136.072 5.94264
-11.8987 32.1185 -21.728
-27.0259 99.0876 40.7939
-2.59911 109.557 47.1851
-59.9915 150.701 -46.8926
-55.5853 52.0499 28.1817
-37.3241 90.9485 -24.4125
-47.9847 41.8774 31.6534
-48.589 101.728 -20.4977
-66.1816 153.454 -51.5926
-65.6173 37.077 10.4002
-85.6684 148.744 14.7711
-44.615 65.4239 -13.5082
-52.7074 57.7164 -9.16445
-37.5132 53.0568 -11.3367
-84.5684 133.658 34.2295
59.8361 70.6291 17.7596
-63.9586 173.586 -57.7956
-3.36545 120.743 -5.78351
-4.57734 43.0545 48.6672
-77.4718 73.5531 26.4772
-32.618 77.2138 -27.986
7.40119 127.666 -4.89697
27.2242 44.6344 33.721
-60.4594 69.1922 39.9421
-64.2174 97.8198 -21.5983
-79.8629 69.2223 28.3282
-45.719 100.2 38.0164
-67.6179 97.5415 -14.838
52.0465 92.893 12.8044
30.3651 108.443 40.1354
18.5343 41.2078 39.7293
-34.9796 115.281 -12.447
-61.4523 128.479 40.3783
32.1014 68.9665 39.263
-39.6334 102.298 -24.5231
-66.609 153.053 3.36801
-28.9344 162.868 -5.64187
-5.60728 101.076 -22.3787
-93.016 95.167 8.63973
7.24525 121.311 25.9892
32.9043 45.086 -8.94547
-63.8179 150.667 -3.09178
-33.7682 56.8839 42.7365
59.5963 66.3331 7.24053
42.4879 64.1661 34.5951
-66.9135 171.715 -44.4744
-74.8322 164.328 -18.1236
-66.4394 152.84 -41.8616
-55.2437 44.9063 41.6713
-86.6908 141.313 43.8234
-51.6663 82.1646 -23.9334
-15.592 41.5345 53.6632
37.595 101.167 21.6457
14.037 52.7828 56.2764
-3.85912 107.092 -24.7361
-59.7396 49.4607 41.4526
-75.906 129.363 -4.61902
-14.3774 53.736 -37.4523
-60.3995 43.7243 38.7926
-83.9784 109.786 1.98358
11.3374 61.9846 53.5395
-22.2771 107.598 39.6939
9.65375 120.915 -14.204
-32.0534 27.0327 20.7943
-22.1755 74.2276 -38.6046
30.0491 83.2819 39.8454
-43.2125 48.7088 -11.8617
35.5717 104.272 16.6889
-69.6671 69.4506 35.3438
42.5405 99.0637 15.5908
-87.0071 135.55 28.4987
-39.1355 30.5785 44.8167
-47.1165 99.4091 41.8001
-55.3462 36.0258 2.98293
-34.8417 166.186 -12.4472
35.3064 86.7215 -22.561
-29.7829 117.478 29.4303
-64.9591 63.8244 34.447
-88.1374 142.558 9.36375
4.48257 52.3935 57.2644
-7.27736 68.4356 -32.9523
11.2613 54.7435 -32.7525
-28.3453 69.5394 -39.4485
-15.3548 112.216 -20.5646
-92.9259 108.49 29.0785
-44.7252 127.095 -14.3669
-60.415 41.8989 6.21245
-74.6757 114.619 48.2917
-86.3091 140.47 23.9402
-60.4083 43.1015 18.5278
12.2127 29.2412 40.4701
60.1044 50.6141 10.3868
-90.6643 118.407 3.85598
-20.2763 71.5416 56.2107
-21.8763 31.8517 -3.91283
-61.1332 120.58 49.7624
4.987 65.077 -30.3432
-19.0072 38.8682 -0.0460644
-55.7876 130.599 -10.1297
-44.657 84.9585 -24.292
41.4097 89.823 27.5054
10.3459 50.2171 -27.3444
-22.4508 178.538 -14.921
40.2644 100.372 31.6791
-59.6286 164.988 -50.2875
-0.620739 38.5569 -0.564259
-93.6401 137.504 6.48064
13.0473 90.6439 -27.5165
19.885 50.0151 -22.6088
-79.1257 149.606 5.26707
23.9099 51.141 -24.0029
-33.0639 178.702 -9.97465
-45.143 60.7458 34.4352
-93.6891 121.439 21.7204
-38.9228 160.326 1.24257
9.65958 93.4833 -31.6821
26.5371 72.3808 -26.5215
14.5473 107.805 -16.7851
-23.7169 38.8686 -27.4548
-6.1822 32.7232 -9.51306
22.0405 50.9069 41.3592
40.7021 107.249 19.3815
-20.2834 69.0806 54.6799
-71.5861 157.9 -4.41528
-37.3535 115.524 -17.8087
14.6243 87.4167 -30.2256
37.6216 102.447 31.5053
10.5663 128.25 18.5458
-4.31064 128.245 4.31551
60.3416 48.6677 12.9247
14.7295 115.422 -16.8385
-50.4864 152.324 -5.03526
5.44415 106.373 -23.4696
-37.1464 115.795 -12.4093
30.2574 88.3645 44.9448
46.7628 97.4209 13.281
-95.3469 138.461 25.5688
27.2236 102.214 40.8415
6.01008 84.4125 52.3576
-31.0626 45.4027 -15.3297
-50.1589 110.175 42.5828
-64.8076 169.202 -58.492
-80.5449 138.371 0.0472515
30.4517 40.6836 35.5452
-90.336 136.322 14.5079
-88.0114 110.041 11.4681
-75.7252 103.737 45.7417
-72.5675 154.922 -3.22282
-59.262 135.742 42.042
2.82149 43.2012 32.0211
-24.124 66.4997 35.544
-60.8014 97.8725 42.3724
-63.0449 55.8116 -9.39645
-11.6866 51.953 51.0657
55.3207 66.1102 24.8767
-29.0399 157.934 -7.70459
-12.7983 32.534 39.7558
-41.5329 55.984 -10.7081
-34.1066 75.6743 -22.563
-66.4236 45.5653 -0.76826
18.4172 95.745 46.3942
44.0002 83.1896 -0.947396
-48.8814 129.654 33.8258
-64.4213 57.791 2.69383
-42.7288 39.5999 38.6248
-6.34022 106.755 -23.3063
-62.4486 27.7697 38.2185
46.5574 84.2828 -16.8293
6.16743 67.0775 -33.3177
38.7105 76.7025 -12.3631
-77.5737 171.289 -57.6125
-20.463 160.159 -16.0791
-85.5889 106.211 11.0596
-75.0483 165.854 -49.8032
-14.1194 100.681 41.2527
-42.0204 82.525 -26.3233
-4.32432 120.123 23.0722
-78.811 106.862 -1.24217
36.813 62.009 -14.4496
38.7398 95.4754 8.53068
16.7937 82.9702 -29.4532
-22.6444 89.4481 52.6145
-87.7844 95.8541 5.61174
-93.4166 114.637 39.7644
-33.0357 31.2272 47.1932
59.2281 59.1965 13.2912
-81.3239 77.8787 -4.15849
-12.1621 34.7766 -11.1133
-31.569 149.542 -1.65922
55.765 53.1322 7.27929
30.1324 75.2997 -20.7668
-67.1817 143.697 -8.4432
-66.5943 55.671 10.9763
10.7759 112.514 43.1727
-85.4562 83.8256 2.56467
-60.4223 45.8348 0.74419
-71.6313 173.259 -52.4825
-24.3901 89.627 46.9745
-61.2133 145.985 -15.0376
-70.3744 158.772 -37.943
-2.16469 35.9729 18.1232
-67.6118 65.2304 10.2503
-29.6428 46.356 -11.3713
25.0708 50.0425 -24.0853
-85.2143 106.069 8.56876
-62.0562 29.1955 -6.01681
29.2385 58.8973 45.3365
