-6.74523 -17.4107 -52.6477
8.65351 -10.2431 -56.7529
23.5888 -1.33063 -55.064
36.2592 8.25176 -47.7849
45.1366 17.3483 -35.7935
49.15 24.8617 -20.5361
47.8156 29.8859 -3.85303
41.2942 31.8148 12.2435
30.3724 30.4158 25.812
16.3675 25.8576 35.2159
-6.74523 -17.4107 -52.6477
5.25173 -5.88898 -58.0022
17.1956 6.85246 -57.412
27.6456 19.2768 -50.9483
35.3415 29.8855 -39.3908
39.355 37.399 -24.1334
39.202 40.911 -7.01647
34.901 39.9979 9.8955
26.9706 34.7699 24.5627
16.3675 25.8576 35.2159
-6.74523 -17.4107 -52.6477
0.625421 -2.64203 -58.3842
8.50093 12.9547 -58.1299
15.9314 27.4984 -51.9156
22.0206 39.2347 -40.4907
26.0341 46.7482 -25.2333
27.4878 49.1326 -7.98372
26.2063 46.1002 9.17759
22.3443 38.0169 24.1807
16.3675 25.8576 35.2159
-6.74523 -17.4107 -52.6477
-4.72409 -0.854103 -57.8574
-1.55286 16.3149 -57.14
2.38596 32.0256 -50.5818
6.6173 44.3829 -38.974
10.6308 51.8963 -23.7166
13.9423 53.6597 -6.64996
16.1525 49.4604 10.1675
16.9948 39.8048 24.7074
16.3675 25.8576 35.2159
-6.74523 -17.4107 -52.6477
-10.2171 -0.718961 -56.479
-11.8763 16.5689 -54.5494
-11.5228 32.3678 -47.0916
-9.19919 44.772 -35.0051
-5.1857 52.2855 -19.7477
0.033559 54.0019 -3.15973
5.82906 49.7144 12.7581
11.5018 39.94 26.0858
16.3675 25.8576 35.2159
-6.74523 -17.4107 -52.6477
-15.2584 -2.25125 -54.3984
-21.3508 13.6892 -50.639
-24.2877 28.4879 -41.8231
-23.7149 40.3599 -29.014
-19.7014 47.8734 -13.7566
-12.7313 50.122 2.10875
-3.64539 46.8346 16.6685
6.46054 38.4077 28.1665
16.3675 25.8576 35.2159
-6.74523 -17.4107 -52.6477
-19.3016 -5.28491 -51.8409
-28.9495 7.98775 -45.8325
-34.5255 20.8064 -35.3473
-35.3568 31.6249 -21.65
-31.3433 39.1383 -6.39258
-22.9691 42.4405 8.58456
-11.2441 41.1332 21.475
2.41734 35.374 30.724
16.3675 25.8576 35.2159
-6.74523 -17.4107 -52.6477
-21.9086 -9.49121 -49.0837
-33.8491 0.0824882 -40.6507
-41.1266 10.1556 -28.3659
-42.8634 19.5133 -13.711
-38.8499 27.0268 1.54636
-29.5703 31.7898 15.5659
-16.1437 33.228 26.6568
-0.189666 31.1677 33.4812
16.3675 25.8576 35.2159
-6.74523 -17.4107 -52.6477
-22.7969 -14.4143 -46.4257
-35.5186 -9.16995 -35.6552
-43.3759 -2.31012 -21.6355
-45.4212 5.33774 -6.05746
-41.4077 12.8512 9.19991
-31.8195 19.324 22.2964
-17.8131 23.9755 31.6523
-1.07796 26.2446 36.1392
16.3675 25.8576 35.2159
-6.74523 -17.4107 -52.6477
-21.8702 -19.5208 -44.1548
-33.777 -18.7669 -31.3873
-41.0295 -15.2401 -15.8854
-42.7529 -9.36566 0.48132
-38.7394 -1.85219 15.7387
-29.4731 6.39409 28.0465
-16.0716 14.3786 35.9202
-0.151297 21.1382 38.4101
16.3675 25.8576 35.2159
-6.74523 -17.4107 -52.6477
-19.229 -24.2572 -42.5171
-28.8131 -27.6684 -28.3095
-34.3417 -27.2331 -11.7387
-35.1478 -23.0036 5.19675
-31.1344 -15.4901 20.4541
-22.7853 -5.59889 32.1932
-11.1077 5.47704 38.998
2.48992 16.4018 40.0478
16.3675 25.8576 35.2159
-6.74523 -17.4107 -52.6477
-15.1594 -28.1103 -41.6902
-21.1649 -34.9099 -26.7554
-24.0372 -36.9894 -9.64479
-23.4301 -34.0981 7.57785
-19.4166 -26.5847 22.8352
-12.4809 -15.3553 34.2871
-3.45948 -1.76441 40.5521
6.55947 12.5487 40.8747
16.3675 25.8576 35.2159
-6.74523 -17.4107 -52.6477
-10.1025 -30.6625 -41.7635
-11.6611 -39.7065 -26.8933
-11.2328 -43.452 -9.83058
-8.86935 -41.447 7.36658
-4.85586 -33.9336 22.6239
0.323613 -21.8178 34.1013
6.04435 -6.56107 40.4142
11.6163 9.99642 40.8013
16.3675 25.8576 35.2159
-6.74523 -17.4107 -52.6477
-4.60633 -31.6373 -42.7293
-1.33154 -41.5386 -28.7083
2.68415 -45.9203 -12.2759
6.95639 -44.2539 4.58583
10.9699 -36.7405 19.8432
14.2405 -24.2861 31.6559
16.3739 -8.39315 38.5992
17.1126 9.02159 39.8356
16.3675 25.8576 35.2159
-6.74523 -17.4107 -52.6477
0.733635 -30.9291 -44.4827
8.70431 -40.2076 -32.0037
16.2054 -44.127 -16.7158
22.3322 -42.2147 -0.463046
26.3457 -34.7012 14.7943
27.7618 -22.4928 27.216
26.4097 -7.06211 35.3038
22.4525 9.72982 38.0821
16.3675 25.8576 35.2159
-6.74523 -17.4107 -52.6477
5.33867 -28.6146 -46.8339
17.3589 -35.8577 -36.4224
27.8658 -38.2664 -22.6692
35.5919 -35.5502 -7.23294
39.6053 -28.0367 8.02443
39.4221 -16.6322 21.2627
35.0643 -2.71219 30.8851
27.0576 12.0444 35.731
16.3675 25.8576 35.2159
-6.74523 -17.4107 -52.6477
8.70975 -24.9445 -49.528
23.6945 -28.9602 -41.4856
36.4016 -28.9735 -29.4908
45.2985 -24.9828 -14.9902
49.312 -17.4693 0.267155
47.958 -7.33936 14.441
41.3999 4.18522 25.8218
30.4286 15.7144 33.0369
16.3675 25.8576 35.2159
-6.74523 -17.4107 -52.6477
10.4816 -20.3167 -52.273
27.0244 -20.2628 -46.6446
40.888 -17.2555 -36.4415
50.4002 -11.6575 -22.8943
54.4137 -4.14399 -7.63689
52.4444 4.37871 7.49033
44.7298 12.8827 20.6628
32.2005 20.3422 30.2919
16.3675 25.8576 35.2159
-6.74523 -17.4107 -52.6477
10.4621 -15.2326 -54.7716
26.9879 -10.7078 -51.3404
40.8388 -4.38201 -42.7681
50.3442 2.98168 -30.0885
54.3577 10.4951 -14.8312
52.3952 17.2522 1.16378
44.6933 22.4377 15.9671
32.181 25.4263 27.7933
16.3675 25.8576 35.2159
-6.74523 -17.4107 -52.6477
8.65351 -10.2431 -56.7529
23.5888 -1.33063 -55.064
36.2592 8.25176 -47.7849
45.1366 17.3483 -35.7935
49.15 24.8617 -20.5361
47.8156 29.8859 -3.85303
41.2942 31.8148 12.2435
30.3724 30.4158 25.812
16.3675 25.8576 35.2159
