-35.6867 18.6797 -34.6145
-43.3748 19.6701 -37.6571
-70.1342 45.1892 0.7195
3.49204 21.5811 -12.9426
-18.7757 17.3578 -31.2509
-21.5428 16.494 -32.3134
-34.8333 18.0844 -37.5746
42.9955 2.29261 -6.81909
48.6523 -1.18314 -19.4882
-22.6653 2.1735 1.84555
-21.5919 2.26421 2.61358
36.6503 12.0432 -14.3238
-63.1802 52.1824 -60.3497
50.7968 -7.25663 -12.6519
56.7288 -19.7159 -24.5978
-29.682 70.1674 -43.0044
-84.2748 28.2106 15.0254
-75.4423 17.3541 18.5909
-84.2316 29.7561 13.9556
15.1001 22.7648 -19.7685
51.055 -4.38677 -28.3116
48.2981 -12.8577 -48.2782
-94.9398 33.0203 -16.3514
-87.9511 -2.17643 -13.1758
-70.5851 50.3596 -24.3851
-88.2558 46.1173 -11.0608
11.8342 16.8849 -3.13073
15.7812 15.375 -1.59262
-28.6582 16.2744 -35.0975
-49.1011 34.1043 -26.3241
-82.0866 28.2537 15.7539
1.18001 19.3135 -7.2493
-44.6812 14.0178 -11.6977
-20.5014 2.32785 3.36124
-81.1762 -20.0272 -51.7231
32.3438 15.0163 -12.8781
-94.0824 12.6816 -34.8238
51.7085 -10.8961 -40.4497
52.6093 -10.8164 -38.1862
-89.2316 6.3335 -40.2582
-49.382 34.1326 -25.204
-29.6463 73.3331 -45.336
-80.8017 40.5491 5.58941
32.8824 14.9806 -14.2715
-19.3767 2.34047 3.92085
-15.5113 73.06 -65.4997
-35.7751 63.2014 -54.6049
-18.2464 2.33143 4.31812
-29.4968 16.9007 -32.1553
-27.4339 16.3407 -31.3358
17.5557 19.133 -7.44905
-45.4808 24.578 -22.0349
-22.8696 16.2052 -32.8291
-20.1587 16.9192 -31.782
25.3593 13.5894 -4.31367
26.4045 13.2724 -3.91974
24.4411 14.1235 -4.67402
43.6093 1.17978 -6.55692
41.7031 4.46404 -7.37845
-38.7283 61.9047 -36.4411
-92.8754 20.2883 -36.1021
-53.9777 35.9841 -10.8284
54.1281 -13.4368 -16.9418
53.9078 -10.4801 -24.8104
51.639 -16.5636 -5.79199
-55.2495 48.1654 -21.8572
-20.9054 50.4696 -44.3806
-70.7772 40.5341 5.34523
-74.2552 34.3908 11.1157
-71.8053 -53.3383 -16.7864
-94.3277 9.67367 -34.7665
-78.7925 18.9309 18.6489
-37.6373 60.2427 -36.8736
-38.7499 60.2507 -36.1318
-64.9425 55.6383 -61.46
-31.7233 17.2245 -36.3458
-45.0834 24.2183 -23.5207
-69.6878 49.0212 -35.4534
-96.9836 5.99883 2.05826
12.8672 16.5946 -2.73749
13.8357 16.1904 -2.34816
14.8112 15.7838 -1.9709
-29.6457 16.6352 -35.482
-64.383 49.939 -26.9102
41.031 5.44929 -7.66202
40.3733 6.43912 -7.93978
-26.2972 71.8016 -46.1554
51.0011 -15.7936 -44.7859
-72.8312 59.6251 -59.7275
-73.9835 59.697 -60.094
-2.57255 13.1576 0.469623
-3.68893 13.1789 0.205162
37.8704 -19.461 11.3004
-8.26717 58.2195 -52.8794
-42.072 61.8786 -36.0908
-27.1922 15.6744 -36.141
-41.1555 65.273 -39.5143
-17.1467 2.37145 4.51875
-94.8346 26.8583 -17.315
-77.9838 67.8262 -84.5577
-79.9156 18.9327 18.8218
-16.0193 2.35653 4.89821
-89.8946 -8.6037 -34.2503
-49.5823 34.1418 -24.0964
47.4021 -1.09551 -11.6987
41.7644 -9.33155 2.93938
-31.9389 66.8648 -41.1995
-79.7864 34.3787 11.8262
-79.675 40.4931 6.11229
-37.5237 66.7263 -39.7742
49.8296 -4.20158 -14.9534
-88.3791 -2.61717 -34.3643
56.6879 -27.3714 -14.4302
25.2815 18.4478 -14.1037
5.11318 -80.0021 15.1185
6.25026 -80.0367 14.9241
7.35404 -80.048 14.7197
8.47162 -80.0795 14.4435
-11.0757 18.7796 -34.7938
-75.3604 34.4044 11.3891
-50.0012 50.4925 -29.0663
-95.0465 26.828 -18.4352
-78.6891 34.4084 11.8764
-32.9211 72.8375 -49.3328
51.8398 -5.97145 -31.6169
-96.7714 17.9665 -3.77679
48.6635 -14.429 -48.1986
51.8913 -14.0832 -42.6223
53.3282 -13.9379 -39.2289
39.9401 -9.34466 4.2322
57.3649 -27.4691 -22.2204
-27.4267 75.0432 -46.679
-25.0592 75.1523 -46.9607
-74.3319 12.664 19.3836
-75.2545 40.5222 6.48028
-62.3383 21.2648 4.29274
53.5457 -19.6162 -7.92311
-3.6445 21.5911 -22.2007
-13.0157 19.3479 -25.7876
-28.4687 16.5984 -31.7419
-71.7431 49.5269 -32.9807
19.3833 14.4322 -1.77192
-4.46461 18.4513 -7.75376
-67.4688 48.088 -5.14313
-74.1715 48.8782 -7.66336
27.3613 11.6418 -1.91758
-40.823 67.493 -44.2297
-42.7041 66.3016 -44.9103
-58.3595 -78.6201 13.6088
-57.2817 -78.5795 13.848
-56.1648 -78.5674 13.9759
-55.0634 -78.565 13.9932
-14.9245 2.4058 5.11866
-49.9835 52.0982 -29.9358
-78.576 40.5284 6.29515
-8.51236 56.5723 -52.8682
-75.1391 58.1128 -57.8097
-72.8685 58.0392 -56.4676
49.1929 -4.18622 -11.6256
49.8085 -2.74949 -21.672
53.803 -20.2896 -42.4467
-44.3373 58.5976 -34.2575
-42.1265 58.5935 -34.5572
-41.5908 -79.0113 10.2958
-40.4895 -79.0596 9.94694
-71.4529 61.4265 -64.1164
-22.8014 -22.1824 16.0046
-32.7142 17.5875 -36.7294
-90.8869 31.0761 -32.9372
-10.507 15.7905 -6.68069
-33.3683 69.8136 -53.6769
-92.9923 -20.3857 -27.3831
-30.6986 16.9211 -35.9336
27.3662 12.8805 -3.52406
-65.2307 51.3147 -53.3862
-64.6708 50.0053 -53.1397
-64.1032 48.7716 -52.8988
-63.5885 47.416 -52.6748
-72.3664 30.0864 -48.9772
-73.1461 34.3739 10.7108
-77.2643 59.6227 -63.6305
-78.4706 59.6595 -66.7645
38.9797 7.09391 -6.89673
39.6519 4.89265 -4.98243
51.3315 -10.3371 -10.3521
48.5363 -2.64556 -12.7712
51.3584 -5.7884 -20.4738
-13.8009 2.39565 5.25037
-76.3612 40.5572 6.49573
-76.4809 6.12859 17.6857
20.7731 3.91043 4.1939
19.6483 3.92587 4.44573
-86.1391 -0.698078 -8.6571
53.1672 -12.3546 -38.1467
-80.9835 28.2561 15.9039
-12.6861 2.4059 5.53546
-11.5893 2.44936 5.87539
-33.0823 66.8622 -40.1604
-34.1576 66.8763 -39.6599
-35.3331 66.8446 -39.4886
-36.4398 66.7898 -39.5676
-62.1645 7.36163 -51.4276
-71.4935 60.7264 -94.5973
-95.9661 39.187 -14.2662
-10.4704 2.45945 6.28436
-9.35797 2.47085 6.57273
-8.26203 2.51789 6.79325
7.35107 -78.484 14.6925
8.47406 -78.5143 14.4241
9.58427 -78.5354 14.2334
-18.2357 3.8467 3.04508
-94.2026 17.255 -34.9048
17.4089 3.97191 4.9884
-78.1637 66.3079 -81.3129
36.7543 8.45261 -6.20724
41.5086 -9.87651 -53.7331
53.8826 -10.6095 -31.486
6.20875 4.14188 7.70156
-69.6615 40.5184 4.94264
53.8112 -10.6162 -32.6104
51.9302 -12.511 -41.4956
-75.4299 18.9149 18.0387
-39.9036 65.4229 -39.0313
-9.87978 19.8846 -29.4564
11.134 23.1629 -26.121
-65.0948 45.0792 -0.298119
44.6493 3.49829 -12.5942
29.5787 -79.1994 9.24429
25.0795 -19.6671 16.1783
14.0178 22.9452 -20.1921
-7.13313 2.49818 7.15274
48.8834 -1.21067 -22.8299
-81.6296 -16.9626 -50.5769
52.177 -10.369 -13.6955
52.9763 -10.3994 -18.1406
-81.1422 2.15554 -43.8481
-80.2167 26.7271 -46.5248
13.9487 -6.26605 -61.4571
17.2869 -6.26502 -60.8434
18.4574 21.1358 -13.6089
10.9931 22.6449 -16.535
3.92251 22.5631 -19.2859
-34.3569 17.5837 -19.1498
-11.626 19.7653 -25.2559
-30.4788 17.267 -32.5387
16.5775 19.5012 -7.8536
-18.6867 13.6156 -9.71195
-72.2732 57.1331 -54.6423
-62.8465 49.5389 -31.2145
-46.1049 24.4338 -17.3111
-39.1763 68.2874 -43.6522
-36.4478 68.9939 -42.5901
-9.31426 19.8879 -30.8611
-58.3588 -77.121 13.0385
-57.2551 -77.093 13.3186
-56.1605 -77.0543 13.4422
-55.0314 -77.1253 13.5304
-53.935 -77.0583 13.3469
-52.9341 -76.9912 13.042
-39.8922 58.6005 -35.3986
1.11507 21.9709 -30.0455
-94.1962 26.9678 -12.8357
-2.75379 11.8806 -51.4425
-47.2203 -77.3215 11.3082
-46.0802 -77.3279 11.1257
-44.9507 -77.3436 10.9219
-43.827 -77.3963 10.5123
-42.7144 -77.4393 10.2105
-41.5867 -77.4666 9.98457
-40.4744 -77.5028 9.69044
-61.2714 71.9133 -108.868
-65.6136 56.6404 -61.7382
-31.3627 16.5109 -17.9634
-84.1315 44.6013 -2.69781
-66.1709 48.928 -34.0939
3.52273 18.9905 -6.29296
-93.7358 -20.2572 -22.9474
29.1249 11.735 -2.81374
28.2786 12.3677 -3.15527
-65.9569 52.1993 -53.6848
-29.025 15.5999 -38.5222
-30.0305 15.9587 -38.9517
-31.007 16.3385 -39.3352
-32.0304 16.6573 -39.7555
-33.0674 16.935 -40.1653
-86.8692 -5.83757 -39.8189
-12.6768 3.93032 4.5433
53.3668 -10.3865 -20.3521
49.9649 -10.3736 -7.04191
50.9047 -10.3393 -9.23678
50.3471 -4.21841 -18.2882
-52.2168 52.1238 -29.9492
-48.8571 52.1078 -30.1557
-47.7496 52.0837 -30.3252
-6.0311 2.53147 7.35019
-35.286 68.4295 -41.0699
52.7928 -10.3991 -17.0325
56.1214 -25.8116 -12.2374
-26.9225 75.4456 -46.9452
-19.6787 51.8116 -43.6135
-18.6052 51.9034 -44.5184
32.1264 13.2533 -8.11996
-2.39686 21.785 -24.9539
51.6477 -10.3338 -11.4587
48.7626 -2.57215 -14.0091
-24.8271 5.11623 -1.50171
-22.6205 5.16089 -1.28372
-18.2213 5.35621 1.75995
-17.0974 5.36295 2.30181
-78.7379 5.83144 17.1776
5.10038 -76.8717 15.0181
6.23219 -76.8964 14.8078
7.34441 -76.9107 14.6271
8.46678 -76.9415 14.3888
9.59028 -76.9528 14.2551
10.7242 -76.9832 14.1063
11.8359 -76.9959 13.9501
12.9399 -76.999 13.8404
14.0593 -77.0219 13.7424
15.1878 -77.0413 13.5878
-49.9675 53.7053 -30.985
-47.7183 53.7458 -31.152
-45.4856 53.7142 -31.6995
-4.92208 2.54851 7.64286
-3.81486 2.56941 7.69898
-78.7977 23.6338 17.9614
36.1428 12.1158 -12.9281
-61.8957 50.057 -16.1984
-13.7941 3.93481 4.2724
39.8645 9.08994 -12.9977
49.0621 -6.34373 -39.4308
-85.2485 27.6703 -42.6847
49.1994 -11.135 -46.1167
-2.69956 2.55471 7.6923
-34.218 65.2037 -39.2563
-78.7899 14.1927 18.826
46.3063 -4.96562 -45.2592
-74.3249 17.3511 18.4825
48.8213 -7.93151 -42.8042
52.3706 -10.366 -14.8034
57.6371 -27.5109 -25.5531
-71.9475 -19.9496 -57.4815
-70.805 -19.9289 -57.8373
-75.2755 -20.0509 -56.156
-73.03 -19.9868 -57.1141
-74.166 -20.017 -56.5908
-23.9478 76.8613 -48.3133
-21.6724 76.7372 -49.9915
17.4834 21.5232 -14.0036
-55.4658 52.8117 -31.7168
-60.2161 50.312 -33.4925
-63.2199 48.8796 -34.5894
-70.1379 49.2532 -33.9945
-33.3814 17.1671 -18.7691
-19.9027 17.3427 -28.4189
-31.4496 17.6735 -32.9271
-75.5933 42.6833 3.92338
-73.3847 57.3371 -55.0524
-46.082 25.6962 -22.3114
-71.9158 48.6368 -6.82283
-80.262 -17.0565 1.16744
-37.7592 68.7242 -43.1002
-59.4737 -75.7193 11.3681
-58.375 -75.6303 12.0965
-57.2572 -75.6047 12.5008
-56.1534 -75.583 12.6717
-55.0413 -75.5714 12.7058
-53.9289 -75.5666 12.7299
-52.833 -75.6191 12.5339
-34.872 16.8723 -42.5115
50.3585 -12.6557 -44.8984
-91.1255 26.3581 -37.2633
-48.3175 -75.7638 11.0297
-47.1989 -75.8008 10.7569
-46.0862 -75.8279 10.6076
-44.9616 -75.8237 10.5294
-43.8507 -75.8564 10.2519
-42.7191 -75.9293 9.89526
-41.5861 -75.9379 9.51857
-40.4747 -75.9582 9.37583
-39.3304 -76.0314 8.73278
-38.2161 -76.0992 8.35
-37.0909 -76.0617 8.66497
-71.4764 57.6067 -55.9563
-70.5055 57.2002 -55.5713
-69.6538 56.5642 -55.2218
-68.856 55.8097 -54.8949
-68.1287 54.9241 -54.5929
-67.3883 54.0531 -54.2842
-66.6853 53.0882 -53.9869
-28.0889 15.1826 -38.1779
-28.3223 -82.8471 19.9202
-26.2096 -74.7368 19.3806
-25.0373 -74.7498 20.0687
-23.8039 -74.5319 20.9551
-22.8686 -74.5198 21.503
-21.7839 -74.4565 21.8334
-20.6574 -74.4576 22.0408
-19.5486 -74.4368 22.0223
-18.4509 -74.4616 21.9496
16.6542 22.3142 -17.5516
-42.1004 60.2345 -35.1851
-43.2102 60.2198 -35.0652
30.4273 14.5274 -8.81445
-19.8396 50.6097 -45.7237
-1.12962 21.993 -24.4615
-10.6167 -74.7696 19.4331
-9.48191 -74.8079 19.0826
-8.38034 -74.8555 18.7739
-7.23261 -74.8952 18.3356
-6.13311 -74.9475 18.0192
-4.99548 -74.982 17.691
-3.87956 -75.0346 17.2823
-2.76866 -75.0717 17.006
-1.65548 -75.1088 16.7275
-0.532394 -75.1542 16.349
0.588938 -75.1773 16.1061
1.71701 -75.2209 15.702
2.84994 -75.2539 15.3313
3.99024 -75.2933 14.9821
5.10396 -75.323 14.6767
6.31462 -75.3581 14.3757
7.35243 -75.3651 14.2334
8.48323 -75.3846 14.071
9.60295 -75.4218 13.854
10.7247 -75.4249 13.8049
11.8637 -75.4463 13.7308
12.9526 -75.4445 13.6485
14.0621 -75.4572 13.4945
15.1809 -75.476 13.3731
16.305 -75.5002 13.2652
-28.3248 15.7983 -36.6049
26.3879 3.89242 3.2737
-12.4513 19.0946 -17.3836
-4.90995 4.07295 6.78458
-7.11736 4.01683 6.28126
-9.34406 3.99185 5.57514
-22.6581 3.70228 0.313472
-53.1069 37.646 -15.3025
-61.7559 67.221 -100.75
-35.742 66.6021 -53.6147
-54.2847 22.7661 -1.73796
-67.7744 24.4871 8.17895
53.7976 -10.446 -23.6947
35.9608 9.20954 -6.52744
-36.4585 65.2172 -38.3875
-33.0426 70.0815 -42.4215
-98.579 10.2075 -13.679
57.3554 -24.5243 -32.2938
-1.57925 2.52844 7.66026
-0.465222 2.54215 7.81925
-78.9322 2.22831 -45.3514
-44.7597 56.5361 -49.4153
-39.089 56.5376 -52.9779
-50.6363 -47.4708 3.02187
-32.7232 -20.8671 -65.4315
-33.8409 -20.885 -65.305
0.638534 2.58586 8.03998
50.6808 -4.26576 -21.6275
-74.2639 32.8661 12.0242
-88.4281 44.911 -7.89245
1.75392 2.59158 8.18798
16.4552 21.8055 -14.4089
-61.8153 49.3346 -34.0805
-68.8126 59.0746 -100.07
-66.5665 52.0987 -52.295
-65.2585 49.9952 -51.7409
4.58025 16.4264 -2.64596
-21.288 16.922 -28.9482
-36.7798 18.8622 -35.0473
-77.7453 43.0807 3.06233
18.5213 18.7051 -7.07277
-72.0981 56.2589 -52.9322
26.4042 12.0723 -2.27143
-69.7179 48.3384 -5.98033
-66.3731 47.9219 -4.72724
-59.4553 -74.2544 10.4831
-58.3548 -74.1755 11.0745
-57.2418 -74.1429 11.4964
-56.1217 -74.1601 11.7408
-55.0226 -74.1654 11.7615
-53.9149 -74.139 11.6848
-52.8125 -74.1796 11.6604
-51.7013 -74.2299 11.2595
-50.6122 -74.2826 10.8536
-49.4281 -74.2499 10.5397
-48.3252 -74.3255 10.2215
-47.1978 -74.3535 9.95434
-46.081 -74.3725 9.82173
-44.9525 -74.3456 9.76779
-43.8381 -74.3623 9.6429
-42.7118 -74.3949 9.16275
-41.5831 -74.4592 8.72667
-40.4577 -74.4309 8.82208
-39.3472 -74.4808 8.5103
-38.2185 -74.5456 7.97162
-37.0875 -74.6025 7.64254
-9.85011 19.5878 -16.3965
-19.0767 16.7566 -34.6286
-20.4552 16.3013 -35.1616
-21.9098 15.8007 -35.7255
-23.2288 15.4841 -36.2384
-24.5556 15.1952 -36.7574
-25.6468 15.2488 -37.1636
-26.9621 15.0755 -37.7088
-27.2644 -73.3383 18.3126
-26.1348 -73.3199 18.6849
-25.0449 -73.2841 18.7683
-23.9527 -73.2119 19.2225
-22.8388 -73.1221 20.133
-21.7491 -73.0147 20.968
-20.6426 -72.9689 21.3773
-19.5396 -72.9515 21.4267
-18.4353 -72.9619 21.4085
-17.3382 -72.9935 21.2601
-16.2069 -73.0239 20.915
-68.5099 40.5085 4.15148
-13.9305 -73.197 20.1064
-12.8293 -73.2158 19.6534
-11.7426 -73.2309 19.3584
-10.5988 -73.2711 18.8932
-9.50885 -73.3438 18.5557
-8.38355 -73.3836 18.1772
-7.25511 -73.4255 17.8088
-6.12558 -73.4674 17.4415
-4.99815 -73.5016 17.0673
-3.876 -73.5483 16.6799
-2.74218 -73.5756 16.3191
-1.62556 -73.6016 16.035
-0.492022 -73.6342 15.6888
0.627794 -73.6557 15.4113
1.75626 -73.6998 15.0418
2.87713 -73.7234 14.7677
4.00815 -73.7661 14.4897
5.1282 -73.7815 14.308
6.24726 -73.7883 14.173
7.37058 -73.8151 14.1031
8.48667 -73.8062 14.1095
9.60447 -73.8332 14.0372
10.7132 -73.8074 14.1814
11.8391 -73.8598 13.9893
12.9514 -73.8425 13.9631
14.0898 -73.9168 13.6579
15.1791 -73.8912 13.3946
16.3107 -73.9508 13.0354
27.4851 3.8443 3.0709
5.28422 13.2474 1.07086
14.0311 4.04645 6.16606
-6.02253 4.0661 6.50171
-8.23188 4.00794 5.87681
-20.4798 3.81352 1.78334
-21.5827 3.77374 0.930192
-15.9989 5.42466 2.666
-84.0994 42.0256 1.5727
-82.9807 42.0274 2.419
-81.8727 42.0427 3.13883
-80.7716 42.0769 3.59722
-43.4002 20.502 -19.4333
-84.3249 23.58 17.5128
-51.126 48.9061 -28.0506
-37.5786 65.1897 -38.3032
-39.7848 65.154 -38.6552
49.7738 -12.7276 -45.999
49.0959 -12.7924 -47.1295
56.6488 -24.3039 -17.8235
7.29971 -7.85405 -62.9752
-75.2604 -23.2585 -56.5361
-74.1422 -23.2266 -56.955
-73.0219 -23.1935 -57.3706
-71.8743 -23.1661 -57.8624
-69.654 -23.1297 -58.1414
-70.7757 -23.1423 -58.0363
-30.3562 16.4616 -37.4467
34.4514 10.8931 -7.16348
-37.6142 61.9041 -36.8752
-36.4079 61.9343 -37.6714
0.853151 22.3365 -22.0839
-76.5398 28.2519 15.209
15.3241 21.9311 -14.8382
-11.8466 15.4954 -7.17203
-67.3844 48.8955 -34.5625
-65.8458 51.2063 -51.9975
-68.0465 53.853 -52.906
-19.3365 -21.9599 20.379
-32.4799 17.9768 -33.3394
-37.8752 19.0302 -35.4789
-96.8586 6.03223 3.17558
0.944552 -14.213 20.435
-67.9265 52.8623 -51.2141
-8.27363 17.8589 -9.206
-9.54903 17.6767 -9.68451
58.742 -46.1233 -9.54132
-58.3112 -72.7784 10.0004
-57.1863 -72.8292 10.2355
-56.0938 -72.7848 10.2987
-54.9885 -72.8445 10.403
-53.8991 -72.8455 10.3509
-52.7865 -72.8235 10.203
-51.664 -72.7768 10.0025
-50.5345 -72.8179 9.47908
-49.422 -72.8888 9.18107
-48.286 -72.861 8.9767
-47.1607 -72.8979 8.7085
-46.0395 -72.9121 8.46772
-44.9276 -72.8939 8.62548
-43.8087 -72.8797 8.54924
-42.6825 -72.8829 8.22697
-41.5627 -72.9542 7.90346
-40.4538 -72.9509 8.04022
-39.3375 -72.9379 8.08997
-38.2222 -73.0368 7.71776
-37.0902 -73.0539 7.22855
-35.9959 -72.9994 7.36637
-70.9732 50.0394 -40.9028
-92.259 45.265 -15.7002
-75.0002 49.6947 -11.291
-78.5709 49.5542 -12.6164
-1.23143 -12.6002 17.9126
39.7502 4.16992 -44.3076
-96.5792 5.88774 -3.50118
-27.1994 -71.9437 17.2836
-26.1339 -71.8289 17.8916
-25.0182 -71.7956 18.289
-23.8916 -71.787 18.542
-22.808 -71.6932 19.0303
-21.7304 -71.5888 19.7491
-20.6318 -71.5117 20.4309
-19.5206 -71.5051 20.5676
-18.4147 -71.5117 20.5796
-17.3116 -71.5249 20.4644
-16.2188 -71.5994 20.1516
-15.1058 -71.6437 19.7739
-13.9791 -71.7034 19.2753
-12.848 -71.753 18.7821
-11.7205 -71.7939 18.4059
-10.5942 -71.8404 18.0319
-9.46456 -71.8872 17.4985
-8.34548 -71.9408 17.0989
-7.23036 -71.9641 16.7789
-6.10158 -72.001 16.4472
-4.96575 -72.0158 16.0963
-3.82923 -72.0459 15.7669
-2.70673 -72.0746 15.522
-1.57883 -72.1034 15.3396
-0.4581 -72.1209 15.2327
0.65999 -72.1425 15.1458
1.77295 -72.1502 15.0899
2.89711 -72.1726 15.0869
4.00121 -72.1343 15.1839
5.1134 -72.1327 15.2182
6.22295 -72.0705 15.48
7.33594 -71.9493 15.9996
8.44999 -71.8543 16.4171
9.55446 -71.8138 16.7115
10.6552 -71.7991 16.868
11.7536 -71.7832 17.0233
12.857 -71.7766 16.8922
13.9799 -71.8921 16.2595
15.0964 -72.012 15.2921
16.3144 -72.2549 14.4984
-33.7161 5.04905 -2.76941
-31.5127 5.13352 -2.50419
-32.6071 5.04004 -2.63468
-48.2134 5.076 -2.36634
2.86782 2.58781 8.30154
54.682 -29.6442 -43.38
-2.68695 4.08813 6.97106
-1.56399 4.04929 6.92033
-31.8953 17.9446 -31.4664
-69.675 38.979 5.97401
-70.8107 38.9935 6.64163
-79.6487 42.0402 4.13643
-74.1095 42.0256 4.76707
-37.2856 69.9926 -46.1228
51.903 -10.3553 -12.5794
-51.1157 50.5175 -28.7776
28.6113 15.5822 -9.54453
-10.5093 19.7995 -28.0739
3.9763 2.59925 8.45933
-19.3715 14.6302 -13.3109
51.3969 -7.29227 -15.988
41.1957 -74.2865 -3.09619
42.3186 -74.3534 -3.62714
-48.0567 49.868 -47.3127
-23.4013 69.8029 -60.6631
37.514 -25.322 -62.1452
-27.0138 -22.3856 -66.3403
-28.2569 -22.3939 -66.0281
-26.0464 -22.3088 -66.859
-48.8252 55.3082 -32.1479
-29.3977 16.0296 -37.0516
-92.8546 45.3576 -24.3029
44.2731 2.62893 -9.52612
47.9736 -2.61264 -10.5362
-21.6664 78.5424 -50.2635
36.942 -19.4558 11.9179
5.0842 2.6018 8.48455
9.7928 22.626 -16.9946
2.64719 22.4265 -19.773
13.5543 20.5305 -9.0355
14.5826 20.2214 -8.63312
-43.4844 19.2408 -17.7601
-25.7661 16.2016 -29.0415
-38.9696 19.1938 -35.9069
-92.4671 12.586 -38.1233
1.8515 -12.1602 17.3994
-41.1293 64.0954 -37.8558
-66.516 50.9815 -50.6292
-65.2798 48.756 -50.0935
-64.1152 46.4061 -49.5907
-20.8846 -22.0285 18.7866
-57.1873 -71.3498 8.34826
-56.0827 -71.3012 8.52989
-54.9629 -71.3843 8.63262
-53.8476 -71.3592 8.40556
-52.7362 -71.3612 8.42647
-51.6147 -71.38 8.1735
-50.4883 -71.3953 7.79344
-49.3713 -71.4695 7.49781
-48.247 -71.4656 7.26795
-47.1308 -71.4663 7.16402
-46.0135 -71.4775 7.16958
-44.9037 -71.4602 7.21021
-43.791 -71.4419 7.37579
-42.6762 -71.4375 7.17583
-41.5513 -71.4959 7.08977
-40.4411 -71.4454 7.31833
-39.3264 -71.4451 7.34038
-38.2021 -71.4652 7.00943
-37.081 -71.5024 6.72553
-35.9702 -71.5111 6.61048
-34.8658 -71.5 6.75035
-21.0992 -20.1755 -71.4157
-26.6275 14.606 -39.2186
-27.7598 14.6963 -39.6876
-28.78 14.9919 -40.1029
-29.7611 15.3361 -40.4759
-30.7329 15.7402 -40.8698
-31.7609 16.0368 -41.2864
-26.0929 -70.4469 16.5144
-25.0005 -70.3464 17.3328
-23.9129 -70.2642 17.789
-22.7686 -70.253 18.2632
-21.6859 -70.1694 18.7393
-20.6104 -70.0924 19.0838
-19.4908 -70.1252 19.1946
-18.3847 -70.1316 19.0906
-17.2816 -70.1481 18.9755
-16.1691 -70.1847 18.7282
-15.044 -70.2166 18.3596
-13.9439 -70.3244 17.9158
-12.8079 -70.335 17.5537
-11.6601 -70.3556 17.056
-10.5253 -70.4084 16.4347
-9.40128 -70.4415 16.0649
-8.28624 -70.45 15.9622
-7.16991 -70.4608 15.8517
-6.04915 -70.4808 15.7973
-4.93701 -70.4803 15.8338
-3.84355 -70.5328 15.7013
-2.71713 -70.5372 15.9099
-1.60879 -70.4147 16.4383
-0.495931 -70.315 16.8055
0.612608 -70.2624 17.2247
1.72684 -70.2333 17.3723
2.83801 -70.1721 17.5026
3.96315 -70.1154 17.7659
5.06663 -70.1236 17.9518
6.17004 -70.1406 18.1423
7.28263 -70.1026 18.4213
8.39385 -70.1055 18.449
9.49982 -70.105 18.6214
10.6101 -70.0596 18.7441
11.7209 -70.0661 18.629
12.8323 -70.1015 18.3839
13.9455 -70.1393 17.9972
15.0898 -70.2673 17.412
16.1852 -70.2856 16.8585
17.2867 -70.3522 16.0181
-79.8613 29.8047 14.9657
-80.967 29.7988 14.9395
-30.4036 5.14713 -2.21704
-59.6042 46.4753 -4.1955
44.8956 1.59975 -9.26404
-0.461287 4.10562 7.0293
-78.7508 29.8107 14.8627
-77.6301 29.8249 14.6504
-76.5154 29.8151 14.4027
-74.1687 39.0089 7.67793
-75.2842 38.994 7.91485
-72.9975 42.0291 4.65071
-69.6385 42.0543 3.77213
-68.3794 41.9253 3.24504
-83.4572 -19.8586 -49.5127
54.6725 -12.0382 -26.9947
-46.6498 50.4506 -30.1581
51.1383 -5.77956 -18.2514
-80.8781 35.9558 10.3073
-77.8082 45.2879 -0.433139
-25.1221 73.432 -47.076
42.2939 -72.636 -2.67706
43.4125 -72.6866 -2.89499
44.5179 -72.6553 -2.75208
45.6222 -72.6554 -2.55068
46.7317 -72.635 -2.38966
47.8489 -72.5849 -2.11969
48.9637 -72.5417 -1.99909
-11.5706 3.96342 4.8624
-46.6077 55.3277 -32.2337
-42.0413 55.3556 -33.9583
-7.43016 58.163 -53.8191
42.1012 6.5352 -12.0632
-39.8271 63.5279 -37.1345
49.9356 -7.23131 -9.30315
39.1491 -9.32351 5.0541
-21.8133 79.5448 -52.0521
-20.658 79.977 -51.9405
-19.448 80.233 -52.2408
-4.91526 21.41 -22.688
-14.4043 18.9338 -26.3192
6.37993 20.2319 -8.53613
16.5064 13.2998 0.388715
-71.2626 44.1691 2.06142
-76.0057 55.8489 -54.3293
-71.1774 55.7788 -52.5414
-42.3319 64.0721 -38.312
2.283 21.5097 -13.4071
-64.4125 45.7571 -46.422
-68.523 51.5995 -48.1785
-70.9009 53.8744 -49.1592
-57.1322 -70.0882 5.50225
-56.0253 -70.043 5.94497
-54.8938 -69.9486 6.32715
-53.8014 -70.0031 6.14109
-52.6828 -70.0602 5.86975
-51.5667 -70.1151 5.72322
-50.449 -70.1083 5.86902
-49.333 -70.0662 5.65842
-48.2126 -70.0739 5.67292
-47.1059 -70.0329 5.8603
-45.9924 -70.0293 5.8845
-44.8838 -70.0142 5.92848
-43.774 -69.979 6.23648
-42.6624 -69.9607 6.40426
-41.5522 -69.9372 6.48048
-40.4323 -69.939 6.51494
-39.3121 -69.9518 6.48936
-38.1861 -69.9675 6.28886
-37.0727 -69.9791 6.26647
-35.9566 -69.982 6.16481
-34.8512 -69.9897 6.04293
-33.7646 -69.9395 6.12156
-70.859 58.941 -58.9848
-69.9456 58.4249 -58.6126
-69.0849 57.7878 -58.2662
-68.2573 57.1148 -57.9344
-67.4806 56.2967 -57.6046
-66.8095 55.2902 -57.323
-66.1515 54.279 -57.0527
-24.9592 -69.0065 15.5693
-23.8814 -68.8922 16.2835
-22.7982 -68.8012 16.735
-21.6743 -68.8026 17.1197
-20.5701 -68.7798 17.1601
-19.456 -68.804 17.0487
-18.3462 -68.8217 16.9316
-17.2342 -68.8394 16.8156
-16.0905 -68.836 16.3541
-14.9806 -68.882 16.0746
-13.859 -68.9116 15.7103
-12.7386 -68.936 15.4574
-11.6263 -68.9322 15.4872
-10.515 -68.8985 15.7774
-9.41752 -68.8714 16.1388
-8.31204 -68.7878 16.8094
-7.19965 -68.773 17.1011
-6.08286 -68.6537 17.4379
-4.97077 -68.5902 17.8459
-3.85666 -68.4934 18.3682
-2.75345 -68.5047 18.5675
-1.65061 -68.5747 18.5225
-0.532364 -68.5128 18.6339
0.574379 -68.5264 18.8244
1.69438 -68.4411 19.0638
2.79849 -68.5101 19.0109
3.92062 -68.4303 19.256
5.01812 -68.466 19.4645
6.13068 -68.3794 19.8475
7.24294 -68.3438 19.9816
8.35388 -68.3577 20.0239
9.46661 -68.3901 20.0888
10.5831 -68.3967 19.9705
11.6934 -68.3859 19.8239
12.8124 -68.4222 19.589
13.9289 -68.4655 19.2058
15.0673 -68.5526 18.7358
16.1874 -68.6195 18.0743
17.2667 -68.5784 17.2729
-75.4538 14.2252 19.322
-4.79574 13.1459 0.0232222
56.7166 -19.8705 -32.3779
-93.3932 0.944149 -21.1859
6.1968 2.62329 8.44263
-77.6794 14.2073 19.1043
-58.059 49.6842 -26.1366
12.8816 23.0372 -20.6333
-75.4084 29.7858 13.9912
-79.895 14.1723 18.3997
-76.395 38.9915 8.02898
-77.501 38.9993 8.02036
-78.6089 39.015 7.88443
-79.7149 39.0022 7.71444
-67.3276 41.935 2.64107
-66.2639 41.9204 2.10913
-65.1897 41.9186 1.61177
-63.9536 42.0039 1.03713
-63.0125 41.9112 0.783881
5.74718 22.7835 -20.1851
4.53721 22.6897 -20.656
42.2858 -70.9582 -1.82636
43.3942 -70.9921 -2.24887
44.5046 -71.0045 -2.1832
45.6084 -70.9555 -1.91014
46.7017 -70.9637 -1.66088
47.8178 -70.9169 -1.39086
48.9352 -70.9021 -1.23294
50.054 -70.8775 -1.09076
51.1718 -70.8535 -1.11811
-93.7542 34.7708 -5.21544
7.31134 2.61096 8.31098
-81.0258 23.641 18.1782
3.29944 22.6432 -24.3602
-63.987 45.0509 -0.586898
55.6866 -21.1495 -13.4462
8.42635 2.59201 8.05008
54.5302 -13.4767 -19.1734
-33.0333 68.5114 -40.7634
-18.3022 80.0501 -53.1061
54.103 -19.5981 -9.0416
-22.6834 16.5514 -29.4818
-33.4663 18.3398 -33.724
-40.0649 19.3183 -36.3366
-74.4336 56.4374 -53.7911
-70.2811 55.2175 -52.1989
-69.4757 54.4732 -51.862
-62.4261 40.6297 -45.3428
-65.0712 46.7646 -46.7102
-69.3022 52.38 -48.4944
-71.8679 54.3326 -49.5238
-74.1126 54.771 -50.325
-55.9492 -68.9051 1.83339
9.54257 2.57076 7.78478
-53.7126 -68.5665 3.15458
-52.6684 -68.718 3.84798
-51.5328 -68.6948 3.50538
-50.4629 -68.6417 3.15423
-49.3051 -68.6786 3.6819
-48.1972 -68.6289 4.12903
-47.1011 -68.5642 4.60799
-45.9899 -68.5404 4.90282
-44.86 -68.5306 5.15701
-43.768 -68.4768 5.51562
-42.6558 -68.4463 5.81594
-41.5419 -68.428 5.97931
-40.4262 -68.4277 6.00361
-39.3051 -68.429 5.93325
-38.1861 -68.4373 5.90869
-37.061 -68.4405 5.85518
-35.9439 -68.4455 5.76249
-34.8142 -68.4779 5.49543
-33.7171 -68.5037 5.29114
-32.6124 -68.4461 5.40795
0.966681 -12.9489 18.747
-33.7233 17.6916 -20.5694
-1.99099 -10.6739 12.4968
-42.0082 19.8546 -23.8357
-58.6348 49.69 -24.72
-74.8033 52.0401 -45.652
-24.9465 -67.674 12.7714
-23.8593 -67.5625 13.5126
-22.7414 -67.5409 14.0764
-21.6385 -67.4945 14.1253
-20.5261 -67.492 14.4138
-19.4029 -67.5108 14.0259
-18.291 -67.5072 14.1828
-17.1833 -67.5235 13.9496
-16.0583 -67.5011 14.2247
-14.9666 -67.472 14.4387
-13.8449 -67.4475 14.7092
-12.7426 -67.3977 15.1596
-11.6158 -67.3064 15.8239
-10.5347 -67.2161 16.7002
-9.44425 -67.1031 17.6645
-8.38316 -67.0234 18.379
-7.22296 -66.9748 18.6198
-6.1181 -66.9631 18.7909
-5.01012 -66.9261 19.0776
-3.90236 -66.8978 19.3756
-2.78983 -66.8609 19.658
-1.67442 -66.8295 19.8022
