26.7696 90.1059 -19.054
-38.669 193.327 -12.5598
-68.2966 98.9767 -21.2203
-77.5943 108.898 47.0798
-101.448 129.23 53.5872
-72.8721 140.551 -6.42063
-38.7879 40.5174 -7.42809
-43.5193 110.034 -21.5123
-70.7403 142.112 -5.48897
-92.3976 105.887 -7.20599
-17.8812 40.7821 8.57903
-63.7946 75.5119 -14.3721
49.1821 49.2489 23.1179
-14.3461 136.618 -3.61589
-48.5784 174.363 2.07786
36.0899 42.6587 25.8601
-42.8877 42.2442 56.5617
59.018 66.6654 14.2454
-67.0195 146.891 36.2364
-50.8094 70.9308 -14.002
-73.9411 140.555 -6.71671
-66.5551 48.909 17.3929
-62.9805 115.981 -18.3823
4.66935 70.6386 60.529
-67.8266 54.4177 10.847
-10.3079 41.1866 1.77716
-41.5833 131.541 -4.27237
-31.2094 115.125 46.9522
-41.357 111.592 -21.63
-92.2213 107.341 -7.17033
-84.2778 167.227 10.3474
15.4485 111.705 -17.9372
-0.299186 41.5701 33.134
-11.1162 105.651 -26.7307
-104.363 131.447 7.66119
-54.3772 35.3957 -3.86559
-98.3735 97.5827 33.464
-98.0217 82.9763 9.30364
-50.9483 91.2869 -20.9637
-83.4725 141.07 56.1494
-6.26506 75.5115 63.3596
-28.2039 69.7554 -37.4858
-100.841 143.811 50.8504
-18.1203 190.257 -25.9716
49.5589 65.241 -1.19057
18.4477 73.6006 51.9979
22.6173 58.8561 46.5881
-54.0911 78.7869 -17.388
-49.9964 37.4534 12.8957
-23.7065 125.559 42.141
-84.1113 129.382 59.7416
19.959 82.5538 54.2633
21.8153 130.649 6.01256
-99.0809 104.854 32.3589
-81.4562 159.067 -35.3172
-76.9598 43.7025 35.7125
37.0645 113.345 8.62464
-37.8488 98.0519 -27.6657
-45.4663 127.405 -10.7799
-62.6933 73.8014 -12.9778
-21.517 132.908 36.3609
-106.958 131.84 36.7939
17.8568 134.627 12.2065
54.1166 61.6984 3.56949
-38.5807 66.0262 -24.0241
-95.9599 155.077 3.05632
-26.094 134.841 28.8651
-82.0615 170.917 -53.3094
-52.1505 168.106 8.30412
-2.69014 106.168 55.4919
-63.8724 163.432 17.9278
-69.1171 63.0458 25.7763
-105.288 149.42 21.4752
16.0345 131.283 -2.29857
-44.0864 66.2589 45.4854
8.7353 116.622 46.0076
-15.9969 64.8732 62.2924
-90.0974 163.92 -6.78674
-63.5404 50.0745 -5.46104
-68.1283 171.655 4.97329
32.7635 70.7666 42.3406
-57.9533 123.21 -15.0654
19.3264 68.9759 -23.4027
-100.145 87.5368 12.5085
38.3783 85.9 -5.175
-98.6995 107.754 31.8591
-13.8894 103.785 59.9993
-9.91085 83.5308 -37.236
-72.4937 35.6197 17.6919
-76.6773 117.805 42.8072
-85.4998 90.6617 -14.8752
-95.9133 91.4089 -3.77251
7.634 122.567 42.9499
36.9969 66.8688 34.368
19.7833 130.427 0.640553
8.05068 139.378 17.7984
-17.461 129.671 -11.2531
-67.8441 86.3306 50.2628
9.81624 113.717 48.7441
-39.1121 114.302 -20.8042
25.4032 128.581 21.206
-72.4989 46.2064 17.3147
37.9699 61.0001 36.4807
-33.6302 97.225 55.887
-86.8459 159.226 -21.8438
-62.8131 141.263 -1.6106
-11.8854 57.3125 -32.6319
-66.7493 86.3909 50.5671
-58.3426 171.124 10.4297
-10.5959 77.1386 65.0448
-82.6786 166.5 32.9359
-6.63419 77.3773 -35.9458
-46.4866 136.966 16.7412
-84.4863 119.245 51.0005
44.6097 45.4751 20.932
25.7534 82.5181 49.3548
-97.4156 165.511 18.3798
-68.3598 115.884 -17.3499
-21.5186 44.4054 -26.4211
-33.6352 77.3554 -37.7767
33.5365 53.7683 -4.74443
-7.33317 44.2469 52.9647
15.598 37.0113 8.87869
-21.4332 95.002 63.6284
-2.30661 75.7977 -34.6799
-70.4381 51.0774 7.50061
-65.9676 124.233 -13.8808
-104.315 150.971 26.8393
-86.6579 77.5365 37.0727
-12.5824 40.0334 -13.8452
51.8887 77.7769 23.316
-77.5009 63.7106 18.6188
-96.5076 94.3457 -3.85936
-18.149 47.5198 55.5778
-79.6211 158.356 -30.2099
-18.5786 40.8323 4.44137
-73.5365 35.1443 2.33406
-40.2951 85.861 -32.9642
-61.5391 65.8662 -9.47848
34.5322 67.7421 39.2156
-12.3955 41.4575 36.6059
-49.2396 35.1421 -22.6851
8.61443 36.1501 2.18246
14.963 87.5356 -27.1107
18.6917 113.533 -15.5681
-91.9534 167.008 23.4051
-65.6646 40.9497 -9.16493
19.8895 58.887 48.3528
22.8137 112.618 43.2414
-86.6293 70.5408 6.76749
-106.929 128.858 31.4363
-80.8729 45.7132 7.40767
-75.0352 62.8822 17.9574
-94.9465 149.823 52.3859
3.48065 57.0433 58.6372
-95.8834 79.8458 9.33014
-71.4073 81.7369 -17.7387
41.9635 98.4044 6.57079
-17.6109 190.262 -30.3009
48.8987 53.057 29.5401
-56.6743 131.528 30.2507
-32.5769 77.4057 -38.4979
-53.1536 163.019 -5.30054
-32.6409 91.0716 -38.4688
-13.1657 83.6095 -38.5521
-29.4431 44.5747 60.3221
-72.169 124.308 -11.6808
2.26262 115.134 46.453
-31.2698 126.913 38.4069
-85.4174 156.256 -16.4169
-74.554 159.955 -6.43019
7.42389 77.1413 -31.465
-20.871 114.823 -21.5824
-106.575 135.952 11.9298
-85.1964 113.168 42.5116
-17.3136 39.7554 56.2521
-42.0238 40.7447 57.2898
-80.7596 180.743 -27.6022
-103.716 142.173 46.1156
2.93526 64.6645 59.9132
-75.6995 164.735 3.07047
-81.548 44.6718 11.1232
-20.2987 75.3307 61.4832
-32.8644 124.22 -13.9877
44.9372 76.1374 25.4782
-56.9511 35.411 5.48825
53.6601 66.662 30.8257
42.9118 86.4485 19.5954
-30.0999 106.164 50.0977
1.60087 140.829 9.26322
6.93559 40.1962 50.5321
-12.3457 39.1761 54.7948
-6.46398 52.6036 -30.6554
23.0243 64.6596 -21.286
-105.375 139.231 38.8655
17.4632 40.0665 40.5491
-70.5143 103.551 -19.6531
-1.18126 69.6138 -33.2713
-33.8059 35.0984 -25.6782
-65.3121 146.428 -0.708839
-76.4567 158.947 -25.3161
41.9925 90.9565 24.9523
4.20536 71.0112 -31.2161
30.6359 71.4893 -14.8184
-104.072 140.33 7.54434
-75.8765 104.888 -16.593
-78.3321 38.5779 43.1906
-33.1155 168.879 -8.12203
17.0016 130.94 -1.93865
-97.2524 93.2102 34.0576
1.91227 121.962 -18.2081
-55.302 124.968 -14.7249
27.2591 127.004 17.2887
-57.0221 68.7873 43.7102
21.2999 91.8499 -22.7296
-86.607 90.7158 44.8418
-46.6183 93.0358 -23.2692
-81.7481 179.508 -23.3162
-100.95 106.458 6.89001
-5.77183 140.034 3.45424
29.4138 94.1577 47.1058
-17.1066 40.8608 6.68874
6.53754 127.048 40.9868
-35.5852 135.202 12.7881
-55.3752 108.382 -21.1072
5.20122 140.027 22.9035
-4.67684 141.399 13.1279
-101.892 146.648 47.2
-5.75004 126.961 -14.9275
-34.3733 133.357 24.3449
-54.187 91.273 -21.108
-44.6829 89.3203 -23.3229
20.7069 61.957 49.5433
-34.0606 40.5512 30.9779
-39.5301 49.388 54.4633
-2.2299 141.463 17.1058
-106.421 134.783 46.0431
7.29103 98.2435 58.7535
-87.7757 106.117 -11.5108
-46.6994 119.527 -17.6525
-104.249 142.234 43.1404
-100.4 116.854 19.6948
-100.7 99.1219 5.85739
-102.359 93.4817 11.3549
6.41881 131.581 -9.15157
-45.7721 36.3455 34.2422
-72.1049 125.524 -10.7821
2.06489 102.5 -27.63
48.8965 53.6633 1.53405
4.1232 107.482 -22.0917
-89.2537 166.298 -1.15595
26.2961 98.4472 48.3009
-73.2579 101.495 50.2558
-84.2544 181.564 -51.3169
-69.5316 164.094 36.0563
9.78925 128.539 39.5388
-53.4438 41.376 -22.6171
18.5614 111.103 -17.2793
-56.4083 36.1793 34.0494
26.0188 48.964 -4.65108
-30.2488 52.2597 -28.5776
-78.1717 134.252 -7.6448
-79.8167 36.2659 15.587
-57.8252 140.97 5.45204
-95.1107 102.161 37.6384
43.4753 44.6316 17.445
-83.1328 161.284 -45.1715
-74.2945 64.8355 26.0254
-17.9334 40.6927 20.4675
39.5117 42.8651 20.4078
-18.1978 192.19 -30.4578
-22.9454 97.1859 -37.5101
47.8411 74.2136 4.8598
-67.8507 92.3981 50.3439
12.3928 40.4753 48.7871
35.8368 105.25 33.6634
-41.4926 135.444 18.574
37.8512 41.8953 9.18826
5.15471 93.8879 -31.4696
-75.9551 112.682 -15.6197
-60.6021 153.776 13.0088
27.2194 126.102 26.5214
-74.55 157.791 42.4804
-6.8016 141.011 21.6161
-16.4584 139.659 10.3468
-53.1127 138.696 12.7082
-3.01595 37.7153 2.42168
-107.351 127.524 40.0892
-84.0294 39.6724 2.82392
-41.9523 95.4356 49.6276
-57.2309 142.944 12.7417
-4.11428 84.5307 63.465
-67.8188 36.4705 38.968
-47.398 119.355 40.8513
-22.5742 119.684 46.4764
38.4889 98.0412 -5.26885
-60.5352 75.4747 -13.9706
8.19019 37.6113 48.2704
17.6278 54.121 46.9252
-52.8115 133.948 25.7011
-42.0258 126.705 35.3818
23.4413 99.867 49.8612
-102.392 132.83 3.32925
-41.5223 40.0651 -15.6286
-100.968 113.922 18.6468
16.5144 75.1878 54.9436
-81.8947 188.225 -48.2188
-87.1442 102.415 44.9252
-37.5451 88.1378 52.534
-7.30293 50.7519 55.8712
-56.2379 75.5554 -15.4879
-36.2825 40.2355 -16.7585
1.30343 53.9514 57.8193
-73.7242 49.7236 5.37126
-69.9864 86.2633 49.3894
-75.2063 165.25 -9.91467
-73.5069 76.9431 -14.7434
-66.8924 160.753 32.653
-86.5322 165.148 -29.4796
41.1983 98.4773 23.8251
-83.0024 99.7546 47.5023
-104.266 161.307 25.6314
-17.0196 38.5763 -15.403
-55.9754 41.7415 -16.1588
-57.492 100.609 -21.5349
18.3503 63.0051 -25.2281
-23.7072 199.953 -25.107
-64.7158 70.258 40.525
50.9746 56.8842 1.48003
-103.516 145.096 32.3181
18.4086 46.6286 46.1275
-61.2829 153.747 16.22
4.34005 52.4272 -27.9452
15.2976 37.2806 30.4225
17.4041 97.421 54.0423
-13.3079 113.371 -22.4552
-71.9606 128.668 46.1652
-44.1827 123.73 37.4638
5.02673 60.3463 59.1012
30.3835 116.054 -5.20399
25.6245 81.0505 49.1616
-70.8643 43.5052 21.8901
-9.48979 47.2976 52.7994
-28.011 46.0547 -27.9179
-70.9264 166.402 29.2152
54.4076 57.249 6.83277
32.9406 85.4335 -13.735
-50.8452 74.1392 -15.6294
-81.899 99.7711 47.7044
-62.6542 152.079 22.7049
-102.764 96.3613 10.2459
-84.0907 70.3082 26.7989
-33.6349 75.7894 -37.2288
19.9999 73.6055 50.4735
22.4045 108.56 -16.7192
-94.4024 156.524 0.898455
-53.8342 107.484 47.6423
-95.0303 78.4436 15.831
-8.62849 52.6051 -30.7574
56.7374 75.4893 13.9312
-66.7446 56.7838 11.7958
-105.358 121.411 16.4213
-85.6502 113.877 -9.68602
-18.2843 41.162 -7.90872
-79.184 142.526 50.8998
-38.7182 165.758 -2.21278
51.9191 68.1124 32.1043
31.4248 44.0086 -0.916574
58.1327 72.6421 14.2446
50.0624 55.2859 1.50849
-80.0787 87.7759 -17.0518
3.06424 80.3215 -33.7788
-98.5983 122.819 52.5994
-58.4182 67.2377 42.0946
-78.1625 153.202 46.7256
-97.5949 132.367 -2.13053
-22.5814 41.3262 -26.6473
-6.34871 102.346 60.8818
-76.5068 178.609 -63.4038
-9.2343 39.2152 15.7336
-93.19 75.8535 19.9975
-46.7742 114.588 -19.7683
2.72515 104.793 -23.5757
-39.1991 55.4953 -17.4201
-88.9463 134.155 -6.50793
4.89672 86.6525 60.9591
-37.7364 83.4475 49.8359
-56.0144 182.42 -2.7248
-77.6395 177.816 -26.4388
-22.1642 135.823 -0.406119
27.7302 65.1265 -16.8903
-47.4389 52.1956 -10.4065
-33.4745 173.768 -14.359
-77.9912 70.7359 35.3155
-72.3957 73.7647 -12.6474
-68.9497 77.9262 46.2954
-35.8023 169.199 -9.90658
-1.10312 130.375 -12.1456
56.1741 63.5944 26.8281
52.9491 56.1393 27.8446
55.6876 76.7398 15.1285
-103.16 95.0722 21.0349
19.5629 110.822 -16.9835
-91.59 77.9729 1.78571
-101.935 132.804 2.23443
45.3428 56.7671 -2.94645
-88.4659 144.56 57.2443
-91.1627 142.002 -4.52072
-12.8587 127.571 -13.3695
-66.7505 42.399 -8.08762
-107.418 128.972 40.0658
-31.1814 107.679 49.9622
-85.173 78.9242 39.988
-50.0558 40.3773 48.6728
6.24619 92.332 -31.185
-22.5984 44.4273 -26.6957
-45.2784 52.2677 -11.0985
-23.1244 176.045 -17.2479
43.049 89.4283 12.0255
-69.4432 105.12 -19.5498
-62.1275 35.2928 6.49581
38.0314 83.5861 34.8156
41.051 54.7118 37.176
-43.5389 40.5814 -4.44326
-1.2967 36.94 44.9429
-21.0152 177.828 -19.9212
-76.1194 45.9146 42.2134
-96.4617 125.65 54.6304
-51.921 75.7021 -16.6493
-82.7741 35.6339 1.94485
26.7018 86.8866 48.8461
-22.7578 65.1796 -36.7884
-21.4355 93.5176 63.7893
-103.113 132.08 52.0627
24.5744 75.472 -21.3096
-103.666 99.4061 16.6714
-84.5708 127.892 -7.05197
-74.8326 161.638 -6.4378
57.6662 63.6564 22.9942
-73.6915 183.219 -58.4153
-84.7301 164.976 -43.5159
42.5675 90.9448 17.4082
-5.1068 41.0382 -11.2363
-24.6257 78.3793 61.9771
1.19112 113.655 47.4124
-3.0126 68.0395 63.4278
-2.18563 63.3851 -31.7712
-24.0061 137.347 6.01928
11.9613 127.059 39.9992
1.26748 82.9954 62.7833
-39.0297 187.148 -4.94606
-65.9299 73.8332 -13.063
-43.1729 179.124 -3.38753
-77.5763 39.1693 19.5886
-78.2613 145.29 -7.01552
3.83294 64.6667 59.3102
-6.65794 80.4523 -36.3729
19.2613 132.41 5.04646
-31.2723 50.6298 -27.41
-55.099 35.4569 3.85861
-49.5033 137.438 4.51142
-31.2585 76.1505 55.8542
54.4104 54.2656 11.1824
-89.3854 167.405 24.275
-40.4961 135.367 15.7497
-59.2462 106.039 49.0636
16.543 112.548 47.4546
15.6413 48.0817 47.8084
-9.60958 97.5932 -35.6261
-88.8588 160.792 -18.6183
-83.4859 123.153 -6.83275
-40.2625 106.996 -22.5776
2.90074 113.351 -20.0329
45.5134 45.8328 17.7551
27.0551 49.0487 -4.39765
-73.5832 142.364 43.8332
-25.3047 193.474 -19.2456
-79.772 113.282 44.0699
-74.6707 87.9184 -18.5444
16.4893 112.606 -16.7348
-107.081 134.493 13.0172
-47.3155 78.569 47.6502
-45.5077 132.799 -5.65947
-34.5898 94.3283 56.955
-50.4744 186.249 -2.67208
-57.3108 77.0928 -15.4658
-59.273 131.545 34.0676
-72.8214 149.946 39.2186
-100.547 149.617 47.2874
-99.0618 141.63 1.12608
18.2093 84.0139 55.5515
-100.487 135.714 0.0724337
-89.0259 89.2042 42.7377
13.0367 112.243 49.4207
-35.4747 193.278 -16.8218
-94.9073 164.091 33.6702
-89.3651 103.79 42.5213
-84.1329 78.1798 -9.09541
-86.5224 99.5386 45.9325
-4.46035 75.7814 -34.866
44.615 49.9159 30.9047
-38.0753 180.723 -7.40262
-56.1063 38.6548 -20.4414
28.4013 122.12 -0.911249
37.6884 49.9534 36.1011
-23.8517 188.686 -19.0868
-35.7697 75.6589 -35.5617
8.73831 115.145 47.4866
-44.2075 43.0256 -29.5385
18.1118 129.805 -2.8831
24.1663 119.581 -9.08721
-44.9284 169.345 -10.883
-45.8236 179.142 0.337658
-106.732 142.002 22.6391
31.4923 117.58 -1.13097
0.0553103 119.262 46.3379
-31.7037 63.5821 49.1759
-14.9148 99.5104 -35.4901
43.0734 86.4395 16.3611
-29.8424 172.968 -3.04192
14.9776 82.9533 -27.0677
2.09377 68.0032 -32.1102
18.373 121.115 40.5926
-104.912 147.909 20.4129
-84.7628 69.997 3.93156
32.5475 39.4208 18.1773
-85.3301 75.3071 35.5005
41.9386 99.9564 11.941
-41.511 69.3599 -18.6817
22.5987 118.341 41.0308
-57.0224 75.4259 46.5878
16.1161 50.9637 46.6189
-21.6343 99.7229 -35.7649
-55.314 97.5311 -21.7473
-22.3406 40.6565 19.5955
-100.68 95.9321 29.7306
-69.3168 91.1536 -20.691
-102.925 137.887 50.0888
-45.2628 125.246 36.4205
45.4426 75.1367 6.09377
-63.1679 55.1477 29.0213
-48.6706 45.5658 -24.8893
-28.3187 79.4002 60.4219
-81.4394 183.485 -35.5974
-27.1339 40.5592 4.91273
-57.6982 143.997 15.6984
-33.4501 168.083 -5.90999
20.0371 104.15 50.6356
39.4679 101.207 0.0975768
-13.1524 136.711 -3.7329
-60.7851 109.891 -20.6596
20.3081 124.024 37.707
-29.0363 116.597 46.5868
15.0686 136.093 21.9342
-100.448 116.852 20.7808
-32.1382 198.122 -15.8769
8.52627 70.9755 -30.4063
-64.5687 148.376 32.1248
21.6683 37.3301 5.75865
-4.25354 127.157 43.7341
49.6854 69.4521 32.6251
0.0532814 121.194 45.9161
-83.5056 154.353 -14.3525
-10.6983 124.221 45.8169
-5.78743 122.562 -18.8616
-65.4859 155.44 31.3526
-103.475 144.789 8.57363
35.7324 62.4802 -2.95082
-33.9761 87.0345 59.6646
7.63529 127.085 40.9339
-29.08 193.501 -15.2357
-74.3765 111.916 46.2792
-76.0935 122.335 45.8451
-8.02548 141.136 18.0775
-89.2094 160.803 -15.3903
45.3089 46.201 22.4391
-101.499 109.447 10.0835
5.16813 125.163 42.3507
27.1274 106.932 43.8282
-66.4304 163.853 30.8867
-12.4434 43.7303 54.6042
-94.5464 153.543 0.908423
-101.51 124.844 52.2127
-28.8391 40.762 29.9168
-5.18972 69.5445 63.4605
-35.3644 175.998 -5.37434
-69.3357 166.24 28.2165
1.44494 38.2038 -11.3565
-37.6569 104.578 49.6409
-63.6852 162.064 20.5016
-57.1726 157.054 8.69463
-25.0949 92.7041 -39.5853
-99.1788 89.0754 25.4121
-53.6946 158.297 0.437294
-75.7089 166.565 -10.1075
-44.2764 64.5618 -11.1864
-32.751 102.9 50.229
-76.1317 131.928 53.5429
-73.3377 130.24 48.0268
-87.3624 133.919 59.3958
-48.6032 66.1214 -11.4007
-57.8317 166.521 11.4797
-85.8599 151.567 -6.07836
-102.162 97.7739 9.15776
-74.5156 159.889 -12.9102
-96.3112 81.6152 21.9764
-73.791 167.399 14.0833
17.4376 101.231 -21.8826
24.6885 129.252 10.1564
15.8653 62.0118 53.9446
-87.6228 186.03 -51.4117
-67.3663 148.423 35.6944
-30.3873 71.2316 -37.2358
-74.4533 159.94 -7.51295
-15.99 139.27 26.1015
-65.8251 46.2528 24.8229
-46.2332 175.948 -0.22401
-0.160564 134.916 36.5292
-92.3062 84.7958 37.2365
42.5007 89.446 20.6524
-43.2768 191.056 -7.80122
-37.5868 67.5269 42.9363
-73.8171 148.678 -5.48983
0.228384 61.6892 59.9013
-42.8954 183.772 -15.0502
35.9682 79.6052 -8.39527
23.6555 73.6226 48.168
-68.7335 170.494 8.10446
9.81469 116.64 45.8955
-97.5762 164.723 27.8936
-31.6699 118.751 -19.0383
-41.9388 75.4058 45.9894
-69.2413 68.0049 35.7997
-30.0817 76.2624 57.7331
-81.8679 152.5 -9.31962
-39.3002 131.279 27.3968
-58.5758 102.166 -21.7095
-106.641 142.005 21.5584
-68.4207 59.8534 6.30687
-5.44136 137.259 -2.20397
-51.4757 163.378 7.36201
-20.4185 39.718 -25.7758
-106.644 124.289 14.2227
-23.1308 36.9102 52.0067
-58.3692 144.496 21.7918
-33.5242 169.835 -0.777462
-44.6616 40.5294 -4.62235
-98.8408 96.0649 32.4661
-10.6006 73.9961 63.4062
-53.7754 43.1689 49.4637
-34.3053 85.485 58.5447
-26.0013 65.1384 -36.3215
11.7561 73.9795 -29.6404
-77.5771 101.364 48.5078
-83.6976 119.991 52.4902
-76.1468 45.3409 -2.08146
33.4495 89.6275 41.5167
-102.646 153.796 38.5465
-37.7159 167.244 -7.53244
-62.4011 58.0457 25.748
25.6706 127.19 4.38501
-9.50851 75.5641 64.1335
-37.6549 189.181 -17.0836
-5.5716 36.5039 16.9901
-71.0029 62.8954 22.688
-35.5749 113.474 -22.1066
-26.8734 112.165 48.5585
42.197 43.98 11.3196
38.8311 101.413 30.2999
51.052 76.0134 7.35871
-4.47909 78.8913 -35.7134
-16.2244 129.839 -11.4516
-85.7228 74.5587 -1.42949
-35.1233 100.923 -26.2206
10.6794 74.0137 -30.1947
-104.72 139.289 45.331
-10.574 61.727 60.4058
22.6142 114.036 42.9472
-48.0686 41.8683 49.564
-40.1482 40.5094 -30.0918
-107.025 133.328 40.0217
-17.151 112.227 49.1542
-44.0233 59.9807 43.727
30.4432 54.9262 37.0757
-5.29423 39.6486 -24.1998
-68.125 35.0176 -2.34573
-66.3613 145.424 -1.82741
-62.4403 86.28 49.783
-74.383 158.267 -7.49985
-29.9663 196.693 -12.6662
-68.7708 35.1558 -6.57468
28.7561 112.595 38.5583
-90.8418 162.48 -1.36718
-20.4437 132.948 36.7809
-98.4289 112.039 29.9038
-18.7592 130.468 -9.91443
-50.5968 111.929 45.1418
-41.9025 64.5774 43.9024
43.3577 81.5935 16.9433
39.3379 65.2887 -1.32461
-103.405 102.355 19.8689
-45.2179 108.944 46.8036
43.1834 81.8624 9.93546
24.3834 58.8817 45.3398
-18.2617 130.022 40.8467
56.5473 57.5292 17.6257
-53.2055 106.835 -21.0544
-25.3112 40.5564 21.0374
-75.1076 159.778 -19.3906
33.6256 99.1722 -10.9045
30.4647 79.5286 44.7548
-49.8235 85.0507 -18.9653
-34.2052 63.3883 45.5745
-32.8778 39.8571 61.0423
-16.5895 122.583 -16.6535
-99.8702 100.442 31.7914
-43.0168 81.5598 47.0768
-100.456 87.5843 15.7308
36.4015 75.0862 -8.36808
24.6717 81.0358 49.6763
-73.5119 122.198 41.948
20.6807 40.6627 -0.822817
-74.5451 45.744 32.3648
-82.2462 144.113 54.1119
46.7276 77.6141 22.9496
-17.0604 72.3849 62.0129
12.4264 36.9663 -3.91218
-74.3267 87.7514 49.4681
39.4447 105.809 4.37903
-38.5696 40.3644 6.68874
-27.0489 60.3771 -33.9468
-86.8488 120.971 54.8579
-16.9166 41.0349 -5.48968
-31.062 136.306 12.8498
-94.6888 78.4278 19.0738
-64.8248 160.437 28.0914
-58.5833 103.725 -21.7111
4.10631 132.614 -8.09219
-17.8661 45.0061 56.231
-47.6092 77.2235 -16.614
-62.4984 54.7376 -5.52375
-58.8649 154.959 6.5452
-56.0712 129.513 31.6258
9.3424 116.364 -17.5325
-69.8722 162.374 37.8879
-1.08579 55.6248 -29.7304
8.01094 134.458 34.7999
-99.3017 110.75 4.67021
-72.8414 62.2179 15.0983
-75.2769 151.401 -5.74087
-44.1233 101.559 50.0154
35.9843 85.6976 -9.45654
-38.4577 131.988 -2.61302
-93.8657 135.393 58.6774
-76.8192 84.7484 -17.3096
1.14855 122.68 45.0009
-104.713 157.97 29.8379
-105.248 159.838 25.6591
-24.7034 109.173 49.4909
-58.6499 68.7271 42.2761
34.7537 56.419 36.7129
-63.9907 142.379 36.8144
-42.1797 51.0964 -20.5984
-58.8879 64.2035 41.1433
-85.7376 158.67 -25.1724
-41.2535 36.6845 29.0883
-86.0683 165.118 -32.728
27.3478 125.961 4.9996
-78.6277 193.413 -59.5548
17.1189 82.9182 -26.3296
-77.7299 153.807 -11.254
-88.5261 170.658 -8.10603
-13.8611 134.368 -7.69722
41.2325 87.8987 28.2137
-32.888 41.3163 40.2765
-34.4658 120.91 41.5654
-32.1616 131.833 29.9549
-94.8985 139.97 58.253
-77.4374 81.1091 45.4972
-68.794 76.8602 45.3523
-17.1537 139.547 22.5554
-78.5359 153.83 -11.9908
-40.9861 36.9146 -18.6483
9.73704 53.8748 -26.3157
-15.398 122.664 -16.7521
-100.076 153.986 43.5998
-15.2228 118.65 -21.1314
-12.0803 40.7145 17.7231
-79.0191 35.1432 1.21116
-64.751 67.2556 -7.66833
37.7325 70.7051 -2.91134
-27.9929 122.577 43.3556
-61.1549 152.006 5.43281
-21.2387 36.1185 -18.0188
-32.2812 113.625 47.4961
-7.46453 118.26 48.0019
-76.6082 168.246 -48.0797
-63.2851 55.1832 31.1889
-51.0066 99.1777 -22.8528
-65.3101 50.8269 31.2438
-62.9754 114.435 -18.5244
-77.9383 166.729 -53.57
-78.8315 36.0535 15.9828
-98.7296 165.099 21.1158
-58.3681 70.7484 -12.9923
-65.9049 72.222 -11.5162
-47.4793 59.8014 -9.50106
-103.596 149.567 34.422
57.8601 74.1407 17.4919
-75.8687 188.558 -56.9643
-11.2766 138.022 -0.835748
-12.7083 48.8449 53.3347
-90.4636 78.013 32.059
-42.9495 86.1296 -26.4199
-1.72149 136.697 -3.84074
23.5568 51.0705 42.193
-72.1545 81.5507 47.6807
-75.8692 108.043 -17.0974
-89.8543 78.4171 33.7357
-59.2635 110.437 46.3143
-83.431 107.784 -13.2781
41.6933 101.447 9.77882
23.9456 116.938 41.0952
12.8167 43.5849 49.3989
-40.1345 129.928 -6.93903
-77.0875 143.939 46.3009
28.176 81.0317 47.1529
-51.6546 116.52 -18.7906
-77.7225 166.713 9.56752
-37.1828 177.582 -6.10558
-19.8411 110.804 -23.5561
-103.213 105.188 13.3686
-1.4852 138.358 31.3302
23.8006 49.5497 -7.00125
-72.3893 162.26 1.32352
-48.3784 67.916 47.138
56.5237 70.9425 7.77761
36.5326 71.9984 36.4258
-80.9905 186.484 -46.3221
-85.0673 179.545 -21.4161
-84.6344 166.509 -41.3788
-64.5362 50.9868 45.6669
-98.6202 152.595 46.7849
-62.824 91.2223 -21.0968
-25.6703 51.9482 54.1078
34.9803 114.898 25.8929
8.21319 58.7991 56.1241
-11.8265 118.605 -21.0765
-71.9897 50.0728 42.5716
-90.0805 142.023 -5.22229
-21.6906 66.773 -37.4463
-70.7855 49.0074 47.4896
-99.6028 119.554 6.66265
3.80159 69.1837 61.1751
-33.3895 119.512 43.6411
4.45838 130.036 -11.8193
-44.1845 35.9858 27.1594
-35.8545 83.3745 -37.3212
24.379 95.5128 49.3353
-53.9384 56.7039 -9.54926
33.4503 119.048 16.5288
-83.93 76.5185 38.5465
38.9261 108.958 16.2066
-103.718 146.516 27.98
-50.1487 38.8464 48.847
-56.0341 116.431 44.4675
-66.5043 35.2929 11.4704
-45.2903 185.459 -12.7428
26.8861 96.2221 -18.67
-41.6808 129.703 31.3838
-76.7392 72.9479 39.3872
-104.523 156.772 15.9855
-7.33887 63.3453 61.577
-10.9177 71.2217 -35.1518
5.33733 64.8033 -29.6865
-36.8601 80.2651 -36.2529
-24.5161 123.825 -15.7953
-105.884 124.545 36.8885
-52.7018 131.117 -10.3994
-73.7527 49.8115 6.43296
-90.2559 126.485 57.7681
-103.12 159.487 31.2291
-62.6275 50.4971 24.7538
0.855303 36.871 45.4556
55.8722 55.9762 18.7192
-106.358 130.058 10.8921
-30.4019 77.7877 57.9867
-28.463 40.7118 -3.49792
-77.1804 135.008 53.8343
-5.52778 74.2265 -34.4253
-27.4831 40.5848 2.84551
-71.7902 140.556 -6.04903
-56.3954 97.5068 -21.4948
38.3247 100.846 31.5044
7.57261 55.4967 -27.7249
-32.3905 198.411 -14.6696
31.9501 111.079 35.5972
-75.7887 182.332 -49.1325
-7.32437 41.2627 0.293297
-102.857 147.831 13.9433
6.09094 102.521 -25.4622
19.3421 61.3252 -24.3899
-98.203 162.495 8.4523
18.4084 56.7314 -23.517
-43.0525 189.735 -3.07515
-59.6546 65.654 40.3269
-108.858 133.207 27.0781
-47.5803 171.393 3.62199
2.15144 100.49 -29.8148
24.6804 79.5671 -21.6022
6.05532 122.212 -16.3108
-33.3914 43.0251 -28.9702
-14.9558 41.2288 -7.29957
19.674 55.6818 46.0984
34.2618 117.863 17.2323
-27.1517 77.8939 60.8335
-81.4172 170.773 -5.98437
-47.5627 124.48 -14.2158
6.23984 93.8788 -31.2113
33.9704 113.843 30.8999
5.667 140.228 18.452
-13.1034 138.933 2.64762
54.8597 54.3453 18.7372
6.49555 126.328 -14.287
-60.3729 172.761 -4.55375
0.749783 116.472 -19.6707
-45.4745 129.587 -8.74207
21.0879 96.9961 52.1478
41.9157 99.958 13.0184
-104.934 152.468 27.9073
21.0709 109.752 46.4234
-1.97134 90.5526 63.8373
-40.9876 54.2037 -12.0136
-63.5899 116.403 43.9617
-74.093 188.278 -60.6267
-94.9096 149.049 -0.120813
20.7976 49.5388 43.8881
-103.585 146.334 13.9569
-106.746 122.906 19.6317
-82.2295 121.188 54.0757
-81.6731 172.8 -9.23825
-74.631 145.364 42.3138
-3.45014 41.8008 38.1536
-36.5976 75.4797 45.9071
-77.5977 102.863 47.9982
-66.8336 65.4606 -4.20263
-18.1495 63.2324 60.8313
53.6009 72.2874 28.8575
-39.5226 176.012 -3.79086
-20.0813 42.0578 44.225
-52.8807 59.8373 -10.105
-43.3625 81.5972 -26.3747
-75.9387 48.4653 4.30921
13.0483 109.375 51.5079
40.6045 90.6543 -0.917831
-67.6007 143.9 39.2015
-72.5991 63.9915 3.50952
-48.2245 44.7699 48.1039
-7.69818 117.754 -20.1499
-74.8457 36.719 44.7709
35.0456 90.1197 -12.7407
-3.32381 68.1325 -33.9498
33.8103 85.4885 -12.6921
-87.1774 193.479 -56.4052
-32.0523 177.428 -16.934
-99.9754 115.281 12.1653
-87.1007 187.558 -53.5725
-21.2221 108.615 49.2264
-55.2432 88.1435 -20.1129
-7.62764 138.667 30.7045
-94.402 116.326 -0.759131
29.7511 71.4139 -15.8417
40.3551 105.938 10.8266
10.5783 87.6592 -29.3159
-30.4634 95.9374 60.384
-100.843 102.044 4.76632
-106.586 129.014 47.9789
-47.3696 41.8997 50.3546
58.1558 66.6911 21.8836
-96.8893 88.5247 -1.62615
-21.9555 41.1001 -10.6227
-42.5214 164.961 1.31675
57.26 62.0472 10.0258
25.8233 85.1714 -20.0724
-78.1299 151.824 -7.26904
-82.9993 66.9916 22.3053
9.80651 119.603 44.3636
-100.254 90.3561 4.90525
-70.9334 50.1398 11.0286
-85.9109 187.603 -54.622
-37.3523 94.0888 52.0716
-74.413 158.259 -8.57607
-85.2285 169.56 -38.1642
-6.99722 37.9435 21.2913
-84.0042 67.2328 16.1155
-40.7264 60.2454 -13.159
15.1653 51.9964 -22.2193
-100.595 115.372 17.5542
-79.8193 35.5226 -3.73068
23.0486 64.9322 49.1593
